# .PCD v0.7 - Point Cloud Data file format
VERSION 0.7
FIELDS x y z rgb
SIZE 4 4 4 4
TYPE F F F F
COUNT 1 1 1 1
WIDTH 1039
HEIGHT 1
VIEWPOINT 0 0 0 1 0 0 0
POINTS 1039
DATA ascii
0.29470432 0.38733774 1.3690832 1.3921532e-38
0.30271435 0.38655001 1.3669968 1.4105923e-38
0.31571347 0.38044953 1.3683927 1.3829336e-38
0.32185671 0.38017577 1.367579 1.4013727e-38
0.33361021 0.3854419 1.3639338 1.3737501e-38
0.34417748 0.38658589 1.3682566 1.3737501e-38
0.35639852 0.38602901 1.3666271 1.3645305e-38
-0.26425308 0.39917898 1.3683901 1.5213712e-38
-0.253647 0.39774331 1.3637795 1.5398104e-38
0.22768767 0.3936947 1.3666003 1.4198119e-38
0.23689641 0.39312327 1.3649399 1.438251e-38
0.24589953 0.39226341 1.3622715 1.438251e-38
0.27389282 0.39277166 1.3656204 1.3644943e-38
0.33492264 0.39231458 1.3655694 1.4105923e-38
0.35399905 0.39232552 1.366276 1.3829336e-38
-1.0110043 0.40189859 1.3620942 1.4107362e-38
-1.007319 0.4030554 1.3662078 1.456834e-38
-0.99792451 0.40846479 1.362491 1.3737501e-38
-0.40561554 0.40546 1.3684831 1.5212633e-38
-0.39532506 0.4048827 1.3667948 1.5121157e-38
-0.38533241 0.40459824 1.366098 1.5121517e-38
-0.37615848 0.4051924 1.3683777 1.5398104e-38
-0.36020947 0.40549928 1.3698627 1.5213712e-38
-0.35296971 0.40462625 1.3670814 1.5398104e-38
-0.34649715 0.40463182 1.3672781 1.5766886e-38
-0.33647236 0.40598169 1.3686724 1.6043473e-38
-0.32480854 0.40514219 1.367038 1.6136029e-38
-0.31512254 0.4059993 1.3657433 1.6136029e-38
-0.30445442 0.40569723 1.3658888 1.5951638e-38
-0.29557824 0.40581712 1.3657573 1.5675411e-38
-0.28520104 0.40533209 1.3681294 1.5767248e-38
-0.27416021 0.40595558 1.3690236 1.5674691e-38
-0.26397809 0.40522879 1.366899 1.5213712e-38
-0.25329468 0.40362328 1.3617911 1.548922e-38
0.24528739 0.40567264 1.3652502 1.4751292e-38
0.25223845 0.40016717 1.3684633 1.4290314e-38
-0.97433484 0.41474226 1.3622067 1.4107362e-38
-0.96433765 0.41609097 1.3670125 1.4199558e-38
-0.94171572 0.41625941 1.3682001 1.4383949e-38
-0.93931997 0.41026196 1.3603938 1.4383952e-38
-0.48581576 0.41360739 1.3639706 1.4660179e-38
-0.47702843 0.41625506 1.3669109 1.4660179e-38
-0.46242848 0.41913766 1.3630494 1.5029321e-38
-0.45301917 0.41944546 1.3643987 1.4937126e-38
-0.43387529 0.41864163 1.3653779 1.5028602e-38
-0.42369851 0.41494876 1.364211 1.5121157e-38
-0.41538012 0.41242719 1.3659273 1.5028961e-38
-0.40320164 0.41177988 1.3622416 1.5029321e-38
-0.37355024 0.41120148 1.3613387 1.5213712e-38
-0.36489022 0.41239735 1.3656623 1.5213712e-38
-0.35492134 0.41210535 1.3650309 1.5858727e-38
-0.34496182 0.41181335 1.3643991 1.5858727e-38
-0.33513808 0.41167015 1.3642627 1.5766529e-38
-0.32531905 0.41152692 1.3641262 1.5121517e-38
-0.30744922 0.4108524 1.3674636 1.567577e-38
-0.28677672 0.41046518 1.3643243 1.5398823e-38
-0.27503708 0.4126147 1.3623196 1.5397744e-38
-0.26655918 0.41066751 1.3633008 1.5212633e-38
-0.2597414 0.41007596 1.3615521 1.5397025e-38
-0.4647367 0.42573056 1.3623496 1.5028602e-38
-0.45428285 0.42604673 1.3636678 1.5028602e-38
-0.44422796 0.42035779 1.3677264 1.4937126e-38
-0.43772414 0.42036152 1.3679674 1.4752734e-38
-0.46203902 0.43600506 1.3607633 1.5029321e-38
-0.29565126 0.38925117 1.3782349 1.5305908e-38
0.27670062 0.38888752 1.3739198 1.4198119e-38
0.28556108 0.38789979 1.3707457 1.4105923e-38
0.2976653 0.38824797 1.372846 1.3829336e-38
0.30473575 0.38791081 1.371456 1.4013727e-38
0.31206226 0.38904968 1.3757302 1.3921532e-38
0.32897079 0.38101903 1.3707964 1.3829336e-38
0.3373616 0.38325852 1.3790549 1.3829336e-38
0.36225969 0.38794386 1.373587 1.3644948e-38
-0.30154994 0.3949376 1.3750141 1.5213712e-38
-0.29477379 0.39642966 1.3715583 1.6135669e-38
-0.28599551 0.3956556 1.372104 1.5397745e-38
-0.2745387 0.39678413 1.3710111 1.548922e-38
-0.26480448 0.39354038 1.3713717 1.5581416e-38
0.26720598 0.39297622 1.376999 1.410628e-38
0.29277706 0.39022973 1.3797005 1.4105923e-38
0.34385276 0.39520317 1.3759069 1.3921532e-38
0.35025835 0.39520687 1.3761443 1.3829336e-38
-1.0054195 0.40710461 1.375119 1.3737861e-38
-0.99582684 0.40942752 1.3783143 1.438287e-38
-0.98654151 0.40972117 1.3796589 1.3829699e-38
-0.41623428 0.40633011 1.3711617 1.5120438e-38
-0.40350479 0.40895814 1.3747392 1.5029321e-38
-0.39301854 0.40823156 1.3726258 1.4752734e-38
-0.38350865 0.40853006 1.3739789 1.5121517e-38
-0.3739894 0.40882859 1.3753322 1.5305908e-38
-0.36495176 0.40762305 1.3733555 1.5490299e-38
-0.3546972 0.40463176 1.3755444 1.5673972e-38
-0.34587616 0.40384299 1.3730836 1.567433e-38
-0.33560213 0.40196362 1.3781853 1.5582495e-38
-0.32610881 0.40141228 1.375711 1.5951277e-38
-0.31391969 0.40059218 1.3715535 1.6227864e-38
-0.30395782 0.40030956 1.3709219 1.632006e-38
-0.2942161 0.40031514 1.3712827 1.6688843e-38
-0.28447437 0.40032074 1.3716437 1.5766526e-38
0.22836809 0.40307748 1.3777423 1.438251e-38
0.23375334 0.40774721 1.3719029 1.4659097e-38
0.24392624 0.40542346 1.3752136 1.4290314e-38
-1.0005469 0.41227272 1.3754169 1.3922971e-38
-0.95425397 0.4174397 1.3718209 1.4291753e-38
-0.48552808 0.41367623 1.372057 1.4843851e-38
-0.47190177 0.41531312 1.3717048 1.4476147e-38
-0.4676688 0.41739964 1.3788664 1.4568343e-38
-0.44581255 0.41963238 1.3712624 1.5120438e-38
-0.43248913 0.41282874 1.3706673 1.5212633e-38
-0.45686257 0.42083269 1.3749282 1.5028242e-38
0.30769914 0.38630217 1.3891585 1.3552749e-38
0.31210196 0.38379475 1.3802882 1.3644945e-38
0.3450641 0.38466033 1.3842912 1.3829336e-38
-0.31743798 0.39861602 1.3874342 1.5859082e-38
-0.30639946 0.39377779 1.3823395 1.5490299e-38
0.22501023 0.39353818 1.3885162 1.4290314e-38
0.2345627 0.39326 1.3878694 1.4013727e-38
0.24391881 0.39269805 1.3862145 1.4290314e-38
0.25410727 0.39450583 1.3855664 1.4198477e-38
0.26175055 0.39440727 1.3818164 1.4659095e-38
0.27528405 0.39276809 1.388173 1.4290314e-38
0.2840586 0.39149892 1.3839376 1.4013727e-38
0.31990302 0.3907561 1.3820246 1.4013727e-38
0.32707065 0.39161119 1.3852922 1.4013727e-38
0.33426636 0.39246631 1.3885609 1.3829339e-38
0.34073275 0.39247003 1.3888004 1.3829339e-38
-1.4157686 0.40961498 1.3877748 2.0365939e-39
-1.4099715 0.40990195 1.3889902 1.6678114e-39
-1.0150553 0.40415964 1.3860687 1.3830056e-38
-1.0075575 0.40735069 1.3875508 1.3830056e-38
-0.42961323 0.40983567 1.3827604 1.4936047e-38
-0.41467211 0.40472168 1.3882172 1.4752734e-38
-0.40451568 0.40444207 1.3875254 1.4937126e-38
-0.39794019 0.40444776 1.3877252 1.5029321e-38
-0.36429548 0.40361163 1.3857461 1.5581416e-38
-0.3442156 0.40576506 1.3884435 1.5674691e-38
-0.32401609 0.40249288 1.3829683 1.5398104e-38
0.23603173 0.40513575 1.3849783 1.4198119e-38
0.24232477 0.40484813 1.3841691 1.4105923e-38
-1.4157724 0.41639492 1.3877745 1.3919448e-39
-1.4061058 0.41654465 1.3886329 2.6812389e-39
-0.99405044 0.41511163 1.3852853 1.373858e-38
-0.98193794 0.41058886 1.3828315 1.3921895e-38
-0.97463953 0.41174644 1.3871045 1.4014089e-38
-0.46272415 0.4188911 1.3840529 1.4660539e-38
-0.4439801 0.41758335 1.3863251 1.5120438e-38
-0.42920786 0.41831493 1.3832932 1.5121517e-38
-0.41663665 0.41232049 1.3857604 1.4937126e-38
-1.4157764 0.42317486 1.3877741 2.4943295e-39
-1.4070778 0.4255375 1.3884298 4.3375092e-39
-1.4167536 0.43025193 1.3887383 4.980722e-39
-1.4032125 0.4302597 1.3892399 5.0732694e-39
0.24629205 0.3898415 1.3993114 1.438251e-38
0.25523466 0.38859129 1.3951397 1.4105923e-38
0.26451367 0.38789919 1.3929818 1.4105923e-38
0.27385342 0.3873466 1.3913264 1.4013727e-38
0.2866227 0.38707495 1.3907988 1.4014083e-38
0.29477721 0.38780129 1.3939395 1.3921532e-38
0.30505562 0.38756737 1.393355 1.3552749e-38
0.31650701 0.38792905 1.3949078 1.3829336e-38
0.32649654 0.38821375 1.3962786 1.3829336e-38
0.3362523 0.38821939 1.3966401 1.3829336e-38
0.3458795 0.38808542 1.3964963 1.3460916e-38
-1.0156214 0.39999628 1.3915908 1.3921532e-38
-1.0042669 0.3940973 1.3950137 1.429067e-38
-0.99960256 0.39492282 1.3981886 1.3922248e-38
-0.31215286 0.39370519 1.3936343 1.5398104e-38
0.25436601 0.39544529 1.3970414 1.4105923e-38
0.26624566 0.39375326 1.3913999 1.4566901e-38
0.34745631 0.39275753 1.3900501 1.3644948e-38
0.3539274 0.39276126 1.3902898 1.3552752e-38
-1.4152778 0.40562502 1.3978 1.5756116e-39
-1.0139307 0.40442011 1.3940197 1.3921892e-38
-1.0056601 0.40300059 1.3932941 1.3921892e-38
-0.99438184 0.40271306 1.3940454 1.3829696e-38
-0.98677015 0.40730855 1.3946608 1.4106283e-38
-0.42602926 0.40615389 1.3928742 1.4937126e-38
-0.39273691 0.40589431 1.3928854 1.5213712e-38
-0.38640776 0.40618816 1.3940781 1.5121517e-38
-0.37584904 0.4054763 1.3918979 1.5397025e-38
-0.36011261 0.40892777 1.398862 1.5398104e-38
-0.35226014 0.40749052 1.3941495 1.5582495e-38
0.2242506 0.40065989 1.391624 1.438251e-38
0.23487106 0.40211111 1.3969488 1.4198475e-38
0.24430507 0.40154243 1.3952346 1.429067e-38
0.25008762 0.40039381 1.3914086 1.4382866e-38
-1.4041314 0.41378209 1.3948771 2.1277022e-39
-1.0042409 0.41127765 1.3948138 1.3922971e-38
-0.98279655 0.41741726 1.393464 1.3922971e-38
-0.97514111 0.4184497 1.3971981 1.4291753e-38
-0.96543884 0.41475737 1.3934711 1.438323e-38
-0.95585954 0.41377571 1.3948051 1.4107362e-38
-0.49346757 0.41498488 1.3953705 1.5212992e-38
-0.48403418 0.41653079 1.3977735 1.484493e-38
-0.47193518 0.41904807 1.3904779 1.4936047e-38
-0.46533626 0.41905379 1.3906784 1.4936047e-38
-0.45559853 0.41921109 1.3914745 1.4843851e-38
-0.43985659 0.41334397 1.3944545 1.5120438e-38
-0.42587498 0.41495252 1.3944242 1.4568343e-38
-1.4012351 0.42494142 1.3943168 4.2460282e-39
-0.45600027 0.42187226 1.3943088 1.484493e-38
-0.44760951 0.42336565 1.399623 1.4752734e-38
-0.4391298 0.42158419 1.3939331 1.4937126e-38
-1.4148309 0.43854973 1.3938128 5.4413288e-39
-1.4046381 0.43515155 1.3941904 5.2572991e-39
-1.4060401 0.44006684 1.3991418 6.3622061e-39
0.24647635 0.3852421 1.4073075 1.4382866e-38
0.25680867 0.38652155 1.4042865 1.4198475e-38
0.26455787 0.38610089 1.4064447 1.4014083e-38
0.2756162 0.38587484 1.4019982 1.3921889e-38
0.28518924 0.38688841 1.4021195 1.4013726e-38
0.29604954 0.38428456 1.4046574 1.3737496e-38
0.30553189 0.38387862 1.4035077 1.3829336e-38
0.31626946 0.38498187 1.4079081 1.4013727e-38
0.32610941 0.38498753 1.4082726 1.3829336e-38
0.33496764 0.38389552 1.404598 1.3644945e-38
-1.0041144 0.39712873 1.4043233 1.4291393e-38
-0.99424648 0.39684588 1.4053917 1.3276883e-38
0.22689113 0.3943848 1.4036559 1.4474704e-38
0.23589522 0.39371929 1.405452 1.4382867e-38
0.24324381 0.39268512 1.4039457 1.4198117e-38
0.25230935 0.3907187 1.4034823 1.429067e-38
-1.4156147 0.40869352 1.408795 1.1157138e-39
-1.0020798 0.4046371 1.4030505 1.3830055e-38
-0.9851228 0.40604696 1.4022269 1.3921892e-38
-0.43565816 0.40902963 1.4025861 1.5029321e-38
-0.99704653 0.41387951 1.4040364 1.373858e-38
-0.9766562 0.41015092 1.4050422 1.4290674e-38
-0.95372736 0.41579536 1.4018887 1.4291756e-38
-0.49022686 0.41681752 1.4049292 1.5120435e-38
-0.47520328 0.4175615 1.401603 1.5029321e-38
-0.4653962 0.41800833 1.4055375 1.5028961e-38
-0.45656472 0.41655353 1.4049516 1.5397025e-38
-0.44512334 0.41627967 1.4070144 1.484457e-38
-0.43579695 0.41817021 1.4050641 1.4660539e-38
-0.42331013 0.41235158 1.408529 1.4660539e-38
-0.41604784 0.41177908 1.4067967 1.4660539e-38
-0.40477508 0.41048798 1.4027112 1.5120438e-38
-0.39437327 0.41006142 1.4015955 1.5213712e-38
-0.38492209 0.41064355 1.4039469 1.5213712e-38
-0.37492767 0.4106493 1.4043171 1.5398104e-38
-0.36826473 0.41065311 1.404564 1.632006e-38
-1.4058962 0.42502302 1.4061525 5.1647447e-39
-1.4059021 0.43531951 1.4061519 5.7168367e-39
0.24994132 0.38878372 1.4194604 1.4382866e-38
0.25563204 0.38741556 1.4146678 1.429067e-38
0.27436441 0.38746095 1.4161584 1.429067e-38
-1.0022473 0.39705586 1.4163854 1.4660536e-38
0.2341705 0.39321429 1.4119352 1.4751648e-38
-1.4301876 0.40400097 1.4162607 1.7596413e-39
-1.0015669 0.40358552 1.4154052 1.3646384e-38
-0.99516106 0.40455586 1.4139915 1.3646741e-38
-0.98881477 0.4055911 1.4125974 1.4014443e-38
-0.46130168 0.4074516 1.4198153 1.5304829e-38
-0.45363143 0.40660712 1.4170471 1.5304829e-38
-0.44660363 0.40632948 1.4162602 1.5121517e-38
-0.43533134 0.40520436 1.412601 1.4752734e-38
-0.42499009 0.40492958 1.4119147 1.4752734e-38
-0.41581759 0.40739885 1.4169396 1.5029321e-38
-0.4055967 0.40686181 1.4163486 1.4936765e-38
-0.3968561 0.4075059 1.4179405 1.5489939e-38
-0.38584185 0.40730155 1.4185166 1.5305548e-38
-0.37641823 0.40723595 1.4176506 1.5213352e-38
-0.36457643 0.40738237 1.4167091 1.5213712e-38
-1.4106641 0.41614208 1.4109795 3.8768968e-39
-0.99546939 0.41748595 1.4165897 1.3830775e-38
-0.97320884 0.4115712 1.4101733 1.4106283e-38
-0.96662897 0.41313511 1.4159207 1.4106283e-38
-0.49714404 0.41315833 1.4152242 1.5212633e-38
-0.48654532 0.41717982 1.4146168 1.5213351e-38
-0.47589576 0.41552329 1.4146236 1.5121157e-38
-0.46701843 0.41441345 1.4172788 1.484493e-38
-0.45471466 0.41724405 1.4109169 1.4660539e-38
-0.44612229 0.41493359 1.41669 1.4937126e-38
-0.43468815 0.41364264 1.4126105 1.5029321e-38
-0.97442138 0.42401913 1.4162283 1.4291753e-38
-0.96829337 0.42431754 1.4174149 1.4198479e-38
-1.4106798 0.44369319 1.4109781 6.638793e-39
-1.443791 0.26693848 1.422766 2.6883911e-39
-1.4397486 0.26748228 1.4259176 2.3199729e-39
-1.4507293 0.27388322 1.4225087 3.240846e-39
-1.4451549 0.2748124 1.4277185 2.5018559e-39
-1.45268 0.2812106 1.4244375 6.4641898e-42
-1.445159 0.28178456 1.4277182 6.8327313e-42
0.25825325 0.38457558 1.4287747 1.4105923e-38
0.26698798 0.38282824 1.4225938 1.4013727e-38
0.27649903 0.38298172 1.4238362 1.410628e-38
0.28314933 0.38631052 1.4240651 1.4105922e-38
0.29471239 0.38432691 1.4291246 1.3829336e-38
0.24420379 0.39015186 1.4242513 1.4382866e-38
-1.4300019 0.40592107 1.4232724 1.8525558e-39
-1.4278413 0.40729374 1.4283558 1.5759689e-39
-1.003637 0.40721112 1.4283479 1.4106283e-38
-0.9933812 0.40342915 1.42944 1.3553465e-38
-0.98803061 0.4081023 1.4216326 1.4106639e-38
-0.47705245 0.40942404 1.4263399 1.5212633e-38
-0.46932131 0.40857959 1.4235734 1.5304829e-38
-0.4567444 0.40266168 1.4269575 1.5858003e-38
-0.44583237 0.40197355 1.424788 1.5028242e-38
-0.43554872 0.40184292 1.4246002 1.5120438e-38
-0.4266113 0.40594035 1.4243927 1.5120798e-38
-0.39368564 0.40722641 1.4208695 1.5397025e-38
-1.4202074 0.41203851 1.420633 1.3915777e-39
-1.4175643 0.41676974 1.4252338 3.2326078e-39
-0.99783146 0.41308743 1.4250222 1.3922252e-38
-0.98649758 0.41033491 1.4296949 1.4106639e-38
-0.95591259 0.41441771 1.4208207 1.4290674e-38
-0.49561387 0.41692364 1.4218614 1.5398104e-38
-0.48604757 0.41518676 1.4225645 1.5397025e-38
-0.46084338 0.41607857 1.4201474 1.4937126e-38
-0.4544006 0.41637063 1.4213868 1.5029321e-38
-0.44328102 0.41187569 1.4298042 1.4752734e-38
-0.43501213 0.41046214 1.4251071 1.4660539e-38
-1.413295 0.42591181 1.4208885 4.7044868e-39
-0.99544328 0.42037001 1.4265949 1.3830775e-38
-1.4128844 0.43574437 1.4229048 5.8090323e-39
-1.4121585 0.4455044 1.4245992 6.8231843e-39
-1.4374506 0.26550838 1.4345088 2.7805909e-39
-1.4443166 0.27666482 1.4377564 5.7481263e-42
-0.99559915 0.39881754 1.4378638 1.3185762e-38
-1.4394429 0.4026064 1.436432 1.3901399e-39
-1.4275339 0.40921387 1.4353719 1.0227979e-39
-1.0026803 0.40410665 1.4337133 1.3737859e-38
-0.98801124 0.40548933 1.437144 1.364674e-38
-0.46541113 0.40432832 1.4326967 1.5304829e-38
-0.42518035 0.40730977 1.4384804 1.5029321e-38
-0.41516173 0.40559009 1.4346462 1.5028961e-38
-0.40224189 0.40481225 1.4303241 1.5674691e-38
-0.39545262 0.40481615 1.4305756 1.5398104e-38
-0.38630828 0.40593725 1.434917 1.5213712e-38
-1.4214928 0.41650131 1.4365962 4.5222662e-39
-0.98092997 0.41089606 1.4319024 1.3830052e-38
-0.97468835 0.41117859 1.4331343 1.4014443e-38
-0.96498662 0.41146314 1.4344944 1.3922248e-38
-0.51263595 0.41081184 1.4302608 1.465946e-38
-0.50722373 0.41195139 1.434427 1.5120438e-38
-0.48745644 0.41253591 1.4370284 1.5120438e-38
-0.47364068 0.41469482 1.4386864 1.5213712e-38
-0.45623448 0.41442117 1.4383304 1.5029321e-38
-1.4162993 0.42544463 1.4312845 4.7044882e-39
-0.99187201 0.42325717 1.4367077 1.3923328e-38
-1.413569 0.43724185 1.4358884 5.901228e-39
-1.4098102 0.44305816 1.4320247 6.7309886e-39
-1.4487642 0.27180925 1.4496 2.6869688e-39
-1.448158 0.2844412 1.4416165 6.8411391e-42
-1.448413 0.4095639 1.4498494 1.5752529e-39
-1.0020282 0.40528628 1.4464054 1.3830052e-38
-0.99709493 0.40611354 1.4495565 1.3553465e-38
-0.98442429 0.4027175 1.444115 1.3554544e-38
-0.97721446 0.40474051 1.4475509 1.364674e-38
-0.96676111 0.40824437 1.447938 1.3830771e-38
-0.51647264 0.40707445 1.4411496 1.5397025e-38
-0.48291314 0.40766156 1.4441702 1.5304829e-38
-0.47477651 0.40655243 1.4404156 1.5212633e-38
-0.44090804 0.40925357 1.4449027 1.5029321e-38
-0.43259233 0.40786347 1.4402071 1.4752734e-38
-0.41328034 0.40660563 1.4422842 1.5212633e-38
-0.40493569 0.40856612 1.449541 1.5304829e-38
-0.39331177 0.40718096 1.4448918 1.5304829e-38
-0.38516751 0.40579286 1.4401371 1.5304829e-38
-0.37419319 0.40761805 1.4413698 1.5673612e-38
-1.4445695 0.41547957 1.4459639 1.2079095e-39
-1.4318877 0.41250271 1.4472188 8.3840668e-40
-1.0006896 0.41167811 1.4444444 1.3921892e-38
-0.99718386 0.41677395 1.4462181 1.4014445e-38
-0.50279397 0.41394123 1.4415646 1.5212633e-38
-0.49595171 0.41394714 1.4417725 1.5397025e-38
-0.48209679 0.41610831 1.4433765 1.5305908e-38
-0.46742737 0.41526577 1.440918 1.5029321e-38
-1.4445785 0.4259941 1.4459627 2.8627477e-39
-1.4229679 0.42606306 1.4455473 4.6130101e-39
-0.98536468 0.42643529 1.4479103 1.4567617e-38
-0.97430265 0.42615646 1.4472461 1.4475422e-38
-0.96412253 0.42472324 1.4425532 1.4106639e-38
-1.4465125 0.43709314 1.4479039 4.8878019e-39
-1.4201498 0.43225151 1.4426495 5.3491332e-39
-1.4159428 0.44722274 1.445807 6.6398692e-39
-1.4573604 0.28054646 1.4582876 8.6362024e-42
-1.4645325 0.40154031 1.4580181 3.7490619e-40
-1.4436805 0.40678266 1.4517854 1.5759689e-39
-0.99345946 0.40748844 1.4546692 1.3277957e-38
-0.97767097 0.40435448 1.4590418 1.3738936e-38
-0.51995993 0.40295988 1.4510487 1.4475068e-38
-0.47395226 0.40492007 1.4594496 1.5304829e-38
-0.46547106 0.40355572 1.4547051 1.5212633e-38
-0.45451373 0.40301651 1.4530373 1.5212633e-38
-0.44505233 0.40503022 1.4575416 1.4936047e-38
-0.43504855 0.40469936 1.4556347 1.5120438e-38
-0.42368308 0.40567642 1.457549 1.5304829e-38
-0.41621026 0.40513217 1.4558245 1.5304829e-38
-0.40611547 0.40541226 1.4571991 1.5304829e-38
-0.3962642 0.40596646 1.4595654 1.5581416e-38
-1.4438342 0.41328236 1.4549905 1.299382e-39
-1.4391534 0.41799548 1.4551322 2.5893992e-39
-0.99346548 0.41447467 1.4546685 1.4014443e-38
-0.98463935 0.41517985 1.4574378 1.3922248e-38
-0.96557224 0.41449878 1.455516 1.4015166e-38
-0.51376605 0.41042516 1.4532372 1.4751655e-38
-0.50245655 0.41566724 1.4566145 1.5028602e-38
-0.49232823 0.41440523 1.4524491 1.5121157e-38
-0.47307014 0.41341963 1.4587213 1.5305908e-38
-0.46551773 0.41286603 1.4569997 1.5213712e-38
-0.45828846 0.41259119 1.4562669 1.4937126e-38
-0.44986984 0.41120121 1.4515754 1.4752734e-38
-1.4414097 0.42362684 1.450061 3.5099107e-39
-1.4391595 0.42504737 1.4551315 3.7854158e-39
-1.4295487 0.42096019 1.4523085 3.9690896e-39
-0.99280858 0.42117774 1.4536873 1.4014443e-38
-0.98583996 0.42118376 1.4538991 1.3738936e-38
-0.97571385 0.42133439 1.454707 1.3831131e-38
-0.96364576 0.42063552 1.4525726 1.4476501e-38
-0.51536357 0.42091137 1.4591557 1.5213712e-38
-0.50841987 0.42091537 1.4594129 1.5029321e-38
-1.4435378 0.43434992 1.4546642 4.5200942e-39
-1.4460346 0.44370168 1.4584227 5.4413288e-39
-1.4262351 0.44338837 1.4564334 6.5465974e-39
-1.4219484 0.458505 1.4595938 8.2061131e-39
-1.4154329 0.46347654 1.4528301 8.8511224e-39
-1.4830604 0.15362571 1.4693476 2.4114483e-39
-1.4716729 0.18674666 1.4661692 2.4118014e-39
-1.4588034 0.27505264 1.4672403 5.7425211e-42
-1.4659566 0.28936797 1.466975 1.0011717e-40
-1.4688247 0.29710978 1.4698706 5.7635406e-42
-1.4612486 0.40260178 1.4621423 3.7562506e-40
-1.456385 0.40675309 1.4652811 1.6660037e-39
-1.4470097 0.40974626 1.4626696 1.4837761e-39
-0.51355916 0.40612036 1.4627482 1.4751655e-38
-0.50432181 0.40708852 1.4665304 1.5212633e-38
-0.49736255 0.40709454 1.4667418 1.4843851e-38
-0.48448944 0.40767613 1.4659727 1.4844211e-38
-0.47557577 0.40866372 1.4666342 1.548922e-38
-0.46420276 0.4078474 1.4640534 1.5120438e-38
-0.45286253 0.40703109 1.4614714 1.5212633e-38
-0.4330813 0.40332875 1.4644479 1.5028242e-38
-0.42656019 0.40374488 1.4661698 1.5212633e-38
-0.41619217 0.40307519 1.467292 1.5304829e-38
-0.40583503 0.40389928 1.4673703 1.5304829e-38
-0.39539862 0.40317902 1.4683496 1.548958e-38
-0.38617572 0.40665272 1.4643316 1.5305547e-38
-0.37722668 0.40789738 1.4672754 1.5398104e-38
-1.4459293 0.41320634 1.469322 1.4837747e-39
-1.4393227 0.41841784 1.4625403 2.9571013e-39
-0.97578979 0.41588509 1.4602077 1.4015166e-38
-0.50479645 0.41674903 1.4695542 1.4937126e-38
-0.49616727 0.41535917 1.4648705 1.5213712e-38
-0.48427457 0.4141106 1.4608079 1.5029321e-38
-1.4425528 0.42816535 1.4660332 3.9687225e-39
-1.4435073 0.43555638 1.4670039 5.0725463e-39
-1.4355891 0.43558314 1.466094 5.0732652e-39
-1.4456297 0.44576544 1.465438 5.7168353e-39
-1.4496676 0.45657304 1.4658147 6.5476736e-39
-1.4244808 0.47264042 1.4649111 9.7745234e-39
-1.4144173 0.47480282 1.4645499 1.0880514e-38
-1.5034528 0.0607531 1.4786019 8.760017e-39
-1.4988877 0.067931868 1.4777701 8.7600156e-39
-1.4988918 0.07514786 1.4777697 8.8525671e-39
-1.5008333 0.082470559 1.479699 8.8514881e-39
-1.4834017 0.14456053 1.4746723 2.4121686e-39
-1.4773281 0.14371219 1.4785664 2.1355817e-39
-1.4754171 0.15433568 1.4766356 2.3192527e-39
-1.4826229 0.16514379 1.4763683 2.504004e-39
-1.4773405 0.16536015 1.4785652 2.4118084e-39
-1.4845476 0.17618001 1.4782979 2.4125245e-39
-1.4763064 0.17350319 1.4745336 2.6880352e-39
-1.4713109 0.1840466 1.4731839 2.1352159e-39
-1.4751692 0.19527066 1.4770674 2.5032782e-39
-1.4780622 0.20282891 1.4799802 2.1352145e-39
-1.4620571 0.27703631 1.4781274 6.4725976e-42
-1.4635576 0.28313559 1.4720675 7.1956676e-42
-1.4702158 0.29886013 1.4788251 6.1264769e-42
-1.4673617 0.29107612 1.4759289 6.8411391e-42
-1.4782352 0.40369505 1.4799581 7.4260971e-40
-1.4619294 0.40578026 1.4741254 1.5745312e-39
-1.4558758 0.40710825 1.479353 1.6681645e-39
-1.449173 0.40873677 1.472837 1.2079095e-39
-0.48665029 0.40282813 1.4770724 1.4106286e-38
-0.4742583 0.40122092 1.4714463 1.5028242e-38
-0.46392453 0.40253544 1.4734144 1.4936047e-38
-0.45473725 0.40213782 1.4722198 1.5028242e-38
-0.44314811 0.40151748 1.4733919 1.4936047e-38
-0.43353254 0.40233475 1.4766855 1.4936047e-38
-0.42359567 0.4028827 1.4789883 1.4936047e-38
-0.41604072 0.40234989 1.477217 1.5397025e-38
-0.40608048 0.40289783 1.4795204 1.5397744e-38
-0.38307574 0.40348297 1.4765654 1.5490299e-38
-0.37099952 0.40872383 1.4705081 1.5674691e-38
-1.4442912 0.41661343 1.4751782 2.4968406e-39
-0.51595867 0.41730058 1.4711421 1.4660539e-38
-0.50107932 0.41248897 1.4796988 1.4752734e-38
-0.4917807 0.41057435 1.4730386 1.4107365e-38
-1.4408576 0.42475772 1.4754537 3.9687239e-39
-1.4425433 0.43386373 1.4735365 4.7963223e-39
-1.438237 0.43306866 1.4765905 5.073268e-39
-1.4430244 0.44471663 1.4740212 6.1774547e-39
-1.434975 0.44118181 1.4731213 5.3491332e-39
-1.4438171 0.45284617 1.4766579 6.9157358e-39
-1.4332478 0.45614457 1.4751862 7.1930402e-39
-1.4468176 0.46736491 1.4779059 7.5618227e-39
-1.4396713 0.46737108 1.4781229 8.1149965e-39
-1.4145379 0.47330517 1.4748844 1.1525159e-38
-1.4074103 0.47331133 1.475101 1.1157455e-38
-1.5054154 0.039334815 1.4880364 1.3183993e-38
-1.5046871 0.046463359 1.4835601 7.0990635e-39
-1.4972055 0.046574291 1.4873397 6.0860046e-39
-1.5046912 0.053707484 1.4835597 7.3770839e-39
-1.4972097 0.053834826 1.4873393 4.7019771e-39
-1.4955325 0.064651005 1.4856498 4.8867131e-39
-1.4938552 0.075446084 1.4839605 4.2413465e-39
-1.504712 0.089928098 1.4835578 6.8224682e-39
-1.4950672 0.085104227 1.4839153 6.3614858e-39
-1.505933 0.097487964 1.4885159 7.3763538e-39
-1.4921722 0.0900525 1.4860237 7.1916067e-39
-1.4837148 0.12652998 1.4888376 2.5951221e-39
-1.4864415 0.13305643 1.4802306 2.7802308e-39
-1.476123 0.13343818 1.4849491 2.5958395e-39
-1.4717301 0.14422993 1.4842776 2.5954808e-39
-1.4704944 0.15534648 1.4868248 2.5951235e-39
-1.4857231 0.16062388 1.4877547 2.043386e-39
-1.4725288 0.16590783 1.4844353 2.5951235e-39
-1.4811652 0.1766414 1.482426 2.4121686e-39
-1.4721727 0.17615537 1.4848948 2.5029293e-39
-1.4857339 0.1839931 1.4832573 2.3203289e-39
-1.4736791 0.18461849 1.4851698 2.4114483e-39
-1.4667947 0.18575902 1.4873273 3.9741091e-39
-1.4903138 0.19497621 1.4840879 2.4114469e-39
-1.4830849 0.19498035 1.4843557 2.3192513e-39
-1.4735357 0.19542626 1.486192 2.502925e-39
-1.4760551 0.20529595 1.4849769 2.3192513e-39
-1.4755847 0.21246065 1.4844937 2.5036397e-39
-1.48119 0.22004989 1.4824238 2.5039998e-39
-1.4747223 0.22294496 1.4859987 2.3196086e-39
-1.4806284 0.23558632 1.4894489 2.8720635e-39
-1.4686536 0.24207544 1.4848889 2.5954766e-39
-1.4637823 0.25334883 1.4875708 2.5958353e-39
-1.461437 0.26381198 1.4851555 2.6880352e-39
-1.4939876 0.27617818 1.4884943 2.3203289e-39
-1.4867848 0.27618441 1.4887131 3.0568177e-39
-1.4633243 0.27503806 1.4870865 4.7104368e-40
-1.4939938 0.28339419 1.4884934 9.3309802e-40
-1.4867911 0.28340042 1.4887123 6.4725976e-42
-1.4686784 0.28554019 1.4848865 7.9243428e-42
-1.492069 0.2938329 1.4865501 6.4810054e-42
-1.4868004 0.29422438 1.4887111 1.9195267e-40
-1.4705733 0.293163 1.4868175 7.2040754e-42
-1.4940124 0.30504212 1.4884911 5.4048082e-42
-1.47782 0.30766582 1.4865485 3.9628721e-42
-0.41012076 0.39896727 1.4850701 1.5397022e-38
-0.40254971 0.39844182 1.4833492 1.5397022e-38
-0.39680019 0.39976966 1.4885656 1.5304826e-38
-1.4865946 0.40039507 1.4802166 1.113546e-39
-1.4747397 0.4020068 1.4835037 3.7526493e-40
-1.463179 0.40450296 1.4834168 1.2071878e-39
-1.4561884 0.40739787 1.4874949 1.0242357e-39
-0.50198483 0.40389344 1.4806081 1.4843848e-38
-0.49496001 0.40389952 1.4808215 1.4475066e-38
-0.48491019 0.40665954 1.4848011 1.4567983e-38
-0.47292629 0.40545326 1.480742 1.4936047e-38
-0.41852531 0.40028697 1.4897622 1.4843848e-38
-0.39373979 0.40466124 1.4863982 1.5398104e-38
-0.3744047 0.40550989 1.4843917 1.5766886e-38
-1.4443294 0.41518268 1.4846379 2.9563796e-39
-0.51044351 0.41440356 1.4863566 1.4752734e-38
-1.4421388 0.42622426 1.4845545 4.2449478e-39
-1.4370631 0.42598659 1.4830513 4.3360659e-39
-1.4415245 0.43930736 1.48007 5.6242809e-39
-1.4349625 0.43529776 1.4854186 5.4420491e-39
-1.4424697 0.44676876 1.4810411 6.2696504e-39
-1.4344234 0.44425407 1.4841915 6.2714454e-39
-1.4239897 0.44458577 1.4822698 6.8242605e-39
-1.4135747 0.44268259 1.4842539 7.1008488e-39
-1.4084984 0.44738433 1.4840741 7.3774342e-39
-1.4443539 0.4545365 1.4829841 6.9153771e-39
-1.4366674 0.45277217 1.4826429 7.1923227e-39
-1.4245746 0.45395803 1.4815843 7.6529393e-39
-1.4129136 0.45367032 1.4809381 7.9295262e-39
-1.4085046 0.45456749 1.4840734 8.1139175e-39
-1.4443601 0.46171966 1.4829832 7.2841568e-39
-1.4350488 0.46485326 1.4809463 8.0217218e-39
-1.4243515 0.46464214 1.4813399 8.4827e-39
-1.413383 0.46457717 1.4814231 9.5890476e-39
-1.4066795 0.46114734 1.4821274 8.943318e-39
-1.4121795 0.47015932 1.4879621 1.0971982e-38
-1.4057763 0.47518384 1.4811531 1.1158181e-38
-1.5242721 -0.47181246 1.4958597 1.106347e-38
-1.5150453 -0.47120231 1.4942001 1.2630796e-38
-1.5050836 -0.471499 1.4955699 1.0140433e-38
-1.4843073 0.024890292 1.4933219 1.1247858e-38
-1.4952157 0.03581351 1.4929175 1.042244e-38
-1.4871633 0.03589078 1.496218 6.5480603e-39
-1.4954094 0.046864752 1.4969127 6.1807183e-39
-1.4954135 0.05416983 1.4969124 4.426472e-39
-1.4944652 0.065083459 1.4959464 4.1498683e-39
-1.4916077 0.075890362 1.4930499 3.5963372e-39
-1.4916118 0.083176687 1.4930495 3.9651197e-39
-1.4962084 0.094162136 1.4938796 6.9157372e-39
-1.5153754 0.10515796 1.49417 4.7066378e-39
-1.5080948 0.10516215 1.4944396 5.0768567e-39
-1.4808756 0.12722898 1.4974486 2.6873163e-39
-1.484704 0.13497534 1.496792 2.5036453e-39
-1.4798845 0.13981831 1.496938 2.9639032e-39
-1.4833007 0.14668421 1.4928318 2.5951207e-39
-1.4739916 0.1480161 1.4964166 6.924365e-39
-1.4813917 0.1537189 1.4908884 2.9631801e-39
-1.4730463 0.15519068 1.4954444 4.0659418e-39
-1.472101 0.16235587 1.4944723 6.7388976e-39
-1.4688766 0.16840091 1.4932683 5.4449245e-39
-1.4689517 0.17480117 1.4943422 6.3686843e-39
-1.4676492 0.18427478 1.4956126 4.1559906e-39
-1.4689668 0.19540901 1.4943405 5.5425152e-39
-1.4753631 0.20497009 1.4960694 2.5951193e-39
-1.4698691 0.20705669 1.4938511 2.4114483e-39
-1.4767914 0.2136237 1.4973221 2.5029194e-39
-1.4752623 0.22861719 1.4916493 2.7805867e-39
-1.4790478 0.23650147 1.4955115 2.3188897e-39
-1.4848248 0.27521279 1.4967765 1.3947866e-39
-1.4836249 0.28488517 1.4968121 7.5586039e-42
-1.484203 0.29442623 1.4961268 6.1250756e-42
-1.4913626 0.30673864 1.4970753 2.3117347e-39
-1.4790854 0.30216277 1.4955081 2.1284266e-39
-1.4937009 0.39699852 1.4949638 6.5149308e-40
-1.4816034 0.39938137 1.4908612 1.2046669e-39
-1.4743915 0.39938763 1.4910803 7.4368871e-40
-1.4709728 0.40043166 1.4951859 5.7677445e-42
-1.4678056 0.40237209 1.4955949 1.2068291e-39
-1.4565176 0.40768826 1.4956244 1.3001051e-39
-0.49856088 0.40921289 1.4938018 1.4383952e-38
-0.39125675 0.40136227 1.4947751 1.5489218e-38
-0.38491261 0.40216064 1.4980122 1.5398101e-38
-0.37780985 0.40216473 1.4982753 1.5398101e-38
-1.4517183 0.41002458 1.4905144 1.0245944e-39
-1.4460213 0.41692677 1.496347 3.693223e-39
-1.4438186 0.4252609 1.4940079 4.336426e-39
-1.4368036 0.42552829 1.4945688 4.4286188e-39
-1.4322017 0.43605962 1.4936098 5.9030258e-39
-1.4276197 0.43668979 1.4965001 6.1799701e-39
-1.4045548 0.44474843 1.4936987 7.6540225e-39
-1.4427702 0.45539337 1.4968486 7.193043e-39
-1.4024937 0.45489302 1.495061 8.4827028e-39
-1.4409304 0.46209466 1.4949151 8.0228008e-39
-1.4390906 0.46877724 1.4929817 8.2983087e-39
-1.404567 0.46402264 1.4916956 9.3124635e-39
-1.4063858 0.47185373 1.4936407 1.0788319e-38
-1.5037019 -0.47452256 1.505628 1.2260568e-38
-1.4989341 -0.46568382 1.5008008 8.0210114e-39
-1.5037146 -0.45248073 1.5056268 1.2354209e-38
-1.5123074 -0.44442916 1.5028064 9.4061094e-39
-1.5330511 -0.437803 1.5045396 7.0068679e-39
-1.5276561 -0.43835795 1.5067409 7.4692795e-39
-1.4746556 0.017761761 1.5066886 1.2538948e-38
-1.4838731 0.025136545 1.5083483 8.851135e-39
-1.5121529 0.038525537 1.5069712 1.4302225e-38
-1.5029337 0.03483399 1.5052507 6.554184e-39
-1.4937365 0.03479965 1.5035293 5.9055762e-39
-1.48457 0.034843627 1.504316 7.2849051e-39
-1.5121591 0.045830611 1.5069704 6.0946478e-39
-1.5048677 0.045836922 1.507192 5.9088132e-39
-1.4929247 0.046417501 1.5042845 3.4141306e-39
-1.4893366 0.047142439 1.5061438 1.8464447e-39
-1.4920523 0.054453 1.5050423 4.9818052e-39
-1.4923316 0.064198427 1.5040311 4.4289776e-39
-1.491936 0.076283947 1.5010432 2.5832643e-39
-1.4919401 0.083607778 1.5010428 5.5335244e-39
-1.5002118 0.098313987 1.5017366 7.0097279e-39
-1.4957461 0.094842151 1.5049043 6.3632823e-39
-1.5065699 0.10557088 1.5005002 4.248175e-39
-1.5206306 0.1133953 1.5069839 3.3294557e-39
-1.5132892 0.11339951 1.5072559 3.3298117e-39
-1.503881 0.12029745 1.5016 2.9628256e-39
-1.4926652 0.12231552 1.5045323 2.6873177e-39
-1.488448 0.12604281 1.5056832 2.7802308e-39
-1.4787843 0.13407104 1.5032539 2.5922466e-39
-1.4764979 0.14316085 1.5028255 6.9229273e-39
-1.4739088 0.15523821 1.5061225 7.8427312e-39
-1.4701408 0.16211498 1.5022345 9.8703148e-39
-1.46826 0.16917309 1.5002902 7.4721536e-39
-1.475682 0.17583781 1.5076463 8.6714171e-39
-1.4747524 0.1867491 1.5066797 6.365083e-39
-1.4747566 0.19409637 1.5066793 9.8703148e-39
-1.4682851 0.19824336 1.5002869 4.2496226e-39
-1.4756989 0.20525038 1.5076448 3.6989529e-39
-1.4783431 0.22291145 1.5025429 2.227413e-39
-1.4839911 0.23112284 1.5083375 2.5954766e-39
-1.4774151 0.24474047 1.5015758 2.7787889e-39
-1.4729247 0.26355433 1.5047436 2.6880352e-39
-1.4885738 0.27195677 1.505667 2.2277773e-39
-1.474803 0.27491641 1.5066751 5.0320628e-42
-1.4770596 0.28565356 1.5050902 7.5614065e-42
-1.4840291 0.2973327 1.508334 5.4034069e-42
-1.484787 0.30036435 1.5017778 6.1250756e-42
-1.5012511 0.315312 1.5032772 5.7621393e-42
-1.4930243 0.3181738 1.501996 5.0390693e-42
-1.4930705 0.39878753 1.5019917 9.2879884e-40
-1.4886807 0.39598367 1.5056533 1.3879791e-39
-1.4914293 0.40032163 1.5080568 6.1236743e-42
-1.4701988 0.40586898 1.5018381 1.3001023e-39
-1.4649622 0.40277931 1.5043724 1.4834202e-39
-0.41355711 0.40329126 1.5073061 1.5212631e-38
-0.38683087 0.40857717 1.5011146 1.5398104e-38
-1.4566406 0.41163656 1.5034859 1.5748913e-39
-1.4504354 0.42465085 1.5048119 4.7034107e-39
-1.4437251 0.42609733 1.5098231 4.9814311e-39
-1.4468688 0.43305638 1.5089215 5.1647419e-39
-1.434585 0.43546376 1.5041572 6.3632851e-39
-1.4240514 0.43782774 1.5006102 6.1799729e-39
-1.4195348 0.43868276 1.5037488 6.7320676e-39
-1.4336765 0.44250914 1.5031899 6.639872e-39
-1.4177089 0.44038668 1.5098069 7.2852414e-39
-1.5072937 -0.47430551 1.5170028 1.4196685e-38
-1.5039762 -0.46217263 1.5136229 8.0210142e-39
-1.5248102 -0.44072771 1.5153521 1.1064905e-38
-1.5132629 -0.44797572 1.5152798 4.9785584e-39
-1.5408404 -0.43265462 1.5122564 4.4250329e-39
-1.5355805 -0.43429744 1.5184553 6.5451667e-39
-1.4802752 0.025204211 1.5124843 9.6805411e-39
-1.4766397 0.0252719 1.5166217 8.7585848e-39
-1.4692609 0.025276141 1.5168951 8.3898023e-39
-1.4846605 0.037117925 1.514484 7.1923563e-39
-1.4794626 0.03133332 1.5119669 8.2075747e-39
-1.5233369 0.04594304 1.5106325 1.2634792e-38
-1.4865619 0.045231625 1.5151294 3.0439187e-39
-1.5243149 0.053301245 1.5116028 4.1498879e-39
-1.5160329 0.053273197 1.5108539 4.1527648e-39
-1.5050676 0.053282682 1.5111871 3.5995896e-39
-1.4928174 0.053381313 1.5140605 3.0449795e-39
-1.4881883 0.054859504 1.5166934 1.3861799e-39
-1.5243244 0.064294025 1.5116014 5.3487759e-39
-1.5170093 0.064300351 1.5118238 4.7037638e-39
-1.504795 0.0650893 1.5131953 4.2435059e-39
-1.4951054 0.066629328 1.5147954 2.3084809e-39
-1.4895375 0.06215563 1.5141414 3.2315218e-39
-1.5243338 0.075286806 1.5116003 3.5974162e-39
-1.5170188 0.075293131 1.5118226 3.7825305e-39
-1.5060464 0.075302631 1.512156 2.5839888e-39
-1.4946368 0.07699611 1.5154531 4.6241028e-40
-1.5245595 0.082830995 1.5155946 5.4420519e-39
-1.5154835 0.082946792 1.5178714 3.2293596e-39
-1.4950291 0.084199026 1.5119359 5.901951e-39
-1.5016543 0.099389046 1.5186948 4.1523823e-39
-1.4969239 0.09169054 1.5138669 6.3632823e-39
-1.5079818 0.10645376 1.5134568 3.6967949e-39
-1.5116755 0.11383643 1.5133197 3.054301e-39
-1.5024061 0.11369642 1.5116618 2.6862373e-39
-1.498827 0.11398914 1.515797 3.0550198e-39
-1.4942743 0.12161798 1.5189675 2.7795119e-39
-1.4877489 0.12753689 1.5124561 2.7795119e-39
-1.4855793 0.13536775 1.5180275 9.3203724e-39
-1.4822936 0.14242786 1.5146344 9.3174983e-39
-1.481285 0.15436943 1.5134436 9.5951656e-39
-1.4803554 0.16533697 1.5124769 1.0148348e-38
-1.4788381 0.16390172 1.518978 9.5930062e-39
-1.4727449 0.17420906 1.5126592 6.9193358e-39
-1.4771113 0.18477766 1.5170652 8.2100746e-39
-1.4759109 0.19408634 1.5158412 5.906623e-39
-1.4805577 0.20723811 1.5129193 2.7780798e-39
-1.4769919 0.20042862 1.51703 4.1574269e-39
-1.4916719 0.21511048 1.5165827 2.6865932e-39
-1.4841287 0.2175159 1.5163382 2.5039998e-39
-1.4877577 0.23908682 1.5122005 2.4100063e-39
-1.482278 0.25416428 1.5144043 2.7798679e-39
-1.4952381 0.26585361 1.5124682 1.9511904e-39
-1.4917289 0.28123596 1.5165753 5.3893939e-42
-1.4879422 0.28784549 1.512688 5.7621393e-42
-1.4917415 0.29593047 1.5165738 6.4852093e-42
-1.5064279 0.31795961 1.5161257 4.6831395e-42
-1.497124 0.3117277 1.5141366 2.8838722e-42
-1.4857925 0.39815861 1.5142447 3.7527053e-40
-0.40323478 0.399196 1.5133444 1.5397025e-38
-0.39555141 0.39868 1.5116277 1.5213712e-38
-0.3850472 0.39894626 1.5130174 1.5398104e-38
-1.4916133 0.40236574 1.5160552 4.6890249e-40
-1.4749973 0.40924904 1.5146692 1.0245972e-39
-1.4698355 0.40615866 1.51723 1.4834202e-39
-0.40389767 0.40435943 1.5116013 1.5304826e-38
-0.39802036 0.4056893 1.5167822 1.5489218e-38
-1.4621065 0.41717103 1.5171478 2.8645441e-39
-1.4587959 0.41978413 1.5135626 3.415913e-39
-1.508888 -0.47343093 1.5264503 1.1340057e-38
-1.5070022 -0.46539801 1.5245185 1.2722991e-38
-1.5144296 -0.45423833 1.5242429 1.0694687e-38
-1.5404036 -0.44246566 1.5281636 1.1985426e-38
-1.5237657 -0.4436565 1.5258982 1.1617001e-38
-1.5331185 -0.43676475 1.5275528 1.096983e-38
-1.5515491 -0.42824176 1.5228671 5.8090562e-39
-1.548002 -0.42931816 1.5270013 5.8094093e-39
-1.4851785 0.03594137 1.5255675 1.0051133e-38
-1.488501 0.044829722 1.5263616 6.6402672e-39
-1.4936337 0.05382077 1.5265414 9.2269058e-40
-1.4887623 0.055298615 1.5291806 1.8476961e-40
-1.501027 0.068602711 1.5263155 3.7094052e-40
-1.4972279 0.061052218 1.5224297 3.2297239e-39
-1.4887192 0.062435009 1.5211765 9.4003305e-41
-1.5042403 0.075969458 1.525717 1.8618772e-40
-1.4943409 0.073844135 1.5269721 2.9509804e-39
-1.5116246 0.083354898 1.525492 3.6892587e-39
-1.496134 0.084683575 1.5209011 5.7175598e-39
-1.5337687 0.094431683 1.5248182 6.640951e-39
-1.5239818 0.090589389 1.5226147 6.3640082e-39
-1.5186797 0.090945914 1.5287786 6.4562038e-39
-1.4999007 0.092333421 1.5247642 7.3774342e-39
-1.5036291 0.10480959 1.5259598 3.9723028e-39
-1.4999135 0.1146425 1.524763 3.0550198e-39
-1.5120023 0.12004274 1.5219758 2.3185366e-39
-1.5046406 0.1200491 1.5221995 2.9639032e-39
-1.4941684 0.12616083 1.5255861 2.7787917e-39
-1.4863361 0.14995125 1.526755 1.0607511e-38
-1.4857045 0.15830775 1.5260208 4.7988363e-39
-1.4869637 0.16691546 1.5272424 8.857609e-39
-1.4834447 0.17700928 1.5276009 7.8420123e-39
-1.4817901 0.18728486 1.5298914 9.2256656e-39
-1.4817965 0.19469307 1.5298905 9.4118548e-39
-1.4871632 0.20669526 1.5274861 3.4209297e-39
-1.4888519 0.21185607 1.5291724 2.6862373e-39
-1.4888126 0.22562236 1.5211679 2.503281e-39
-1.4925606 0.23362856 1.5250316 2.7787889e-39
-1.4944367 0.24136859 1.5269632 2.7787889e-39
-1.4888253 0.24787517 1.5211668 2.4100063e-39
-1.4870192 0.26371008 1.5272373 2.5961955e-39
-1.5012053 0.27563924 1.5262926 3.240137e-39
-1.4851632 0.27453279 1.5253043 5.6252044e-40
-1.4966685 0.29098725 1.5294305 6.4810054e-42
-1.4888508 0.29238081 1.5211644 6.8439417e-42
-1.5012308 0.30521587 1.5262892 2.0362254e-39
-1.4962615 0.30721176 1.5208894 1.4830544e-39
-1.5262785 0.32800281 1.5285276 3.2440059e-42
-1.5112349 0.32367 1.5283397 3.9600695e-42
-1.5186788 0.33112082 1.5280638 4.6803369e-42
-1.5465384 0.39769924 1.5250282 3.7346286e-40
-1.5344288 0.39745536 1.5244762 3.7310412e-40
-1.5280664 0.3987132 1.5297153 1.2957835e-39
-1.4846748 0.4008432 1.5247833 5.6001912e-40
-1.477821 0.41210979 1.5255721 8.4020595e-40
-1.4699453 0.41562551 1.5252296 2.3110144e-39
-1.4666524 0.42061216 1.5299883 3.9687225e-39
-1.450091 0.42538089 1.5205947 4.5200956e-39
-1.4481499 0.43443593 1.5266706 5.9944998e-39
-1.4445224 0.44075847 1.5228019 6.5476764e-39
-1.51087 -0.46142426 1.5363833 7.4678404e-39
-1.5071042 -0.46774253 1.5325203 1.1893231e-38
-1.514607 -0.45477942 1.5344235 1.3091058e-38
-1.5313863 -0.44413149 1.5344405 1.1618083e-38
-1.5233523 -0.44585848 1.5361811 5.623932e-39
-1.5520656 -0.43835849 1.5398146 8.3894478e-39
-1.5426065 -0.43093276 1.5332053 6.8213948e-39
-1.5342706 -0.43547845 1.5365163 9.0344445e-39
-1.5277364 -0.43950468 1.5377592 1.1616641e-38
-1.5596278 -0.42504886 1.5385787 8.0228303e-39
-1.4793969 0.025581919 1.5355326 7.2838093e-39
-1.4831629 0.032978654 1.5313902 8.9451397e-39
-1.4926398 0.047423761 1.537317 1.1342595e-38
-1.4887263 0.040594619 1.5371879 1.0883765e-38
-1.4935839 0.054927342 1.5382884 4.0551812e-39
-1.504025 0.06909062 1.5372294 1.8547306e-40
-1.4944932 0.062121358 1.5312561 3.6915106e-40
-1.5059183 0.076633282 1.5391722 4.0562504e-39
-1.4943602 0.074219152 1.5349768 6.1774701e-39
-1.5114696 0.083975665 1.537002 2.5829084e-39
-1.4980911 0.085437194 1.5348382 4.5168586e-39
-1.5250551 0.096285902 1.5352541 6.825701e-39
-1.4990313 0.092978507 1.5358038 7.6550973e-39
-1.5037167 0.10427335 1.5366306 3.6035231e-39
-1.5263592 0.11374576 1.5365471 3.3298117e-39
-1.5189273 0.11375219 1.5367728 3.3298117e-39
-1.504813 0.11456494 1.5359049 2.9628242e-39
-1.4981085 0.11566085 1.5388393 2.6873163e-39
-1.4979349 0.12357452 1.5360311 2.5951193e-39
-1.4932688 0.13458145 1.5338545 6.00205e-39
-1.49085 0.14397611 1.5313618 5.9973767e-39
-1.49081 0.15474463 1.5366126 8.4873803e-39
-1.4906479 0.16067718 1.5391144 7.5672233e-39
-1.4880877 0.16682893 1.5364537 8.1189551e-39
-1.4862244 0.17407456 1.5345089 9.5008106e-39
-1.4841771 0.18611512 1.5323485 9.4096954e-39
-1.4841443 0.19406722 1.5363522 8.3959036e-39
-1.4862459 0.20389503 1.5345066 3.1436239e-39
-1.5022662 0.21773028 1.5352694 2.502202e-39
-1.4909146 0.21201472 1.5393605 2.9617494e-39
-1.4953771 0.22402191 1.5359352 2.6876722e-39
-1.4981772 0.23569292 1.538833 2.8709845e-39
-1.4981816 0.24319492 1.5388327 2.6865932e-39
-1.4935317 0.25364655 1.5340012 2.5951165e-39
-1.4907124 0.27320725 1.5391084 7.1886611e-42
-1.4933411 0.28380498 1.5338612 9.9035368e-41
-1.4974556 0.29705667 1.5341353 4.6845408e-42
-1.4982148 0.30169189 1.5308242 1.4830516e-39
-1.5135651 0.31519055 1.5389196 3.6013371e-42
-1.5056942 0.31366733 1.5345495 3.6041397e-42
-1.5152013 0.32376742 1.5365403 3.9642734e-42
-1.5263649 0.33423892 1.536037 3.6013371e-42
-1.5600709 0.34862351 1.5385381 2.878267e-42
-1.552575 0.34862781 1.5388159 2.8824709e-42
-1.5450792 0.34863213 1.5390935 2.8824709e-42
-1.5281832 0.34070379 1.5377182 2.8810696e-42
-1.5656455 0.39319628 1.5363288 9.6154298e-41
-1.5581591 0.39320058 1.5366061 2.8054556e-40
-1.5459653 0.39296144 1.5360572 3.7274399e-40
-1.5338614 0.39370686 1.5395076 4.6803369e-42
-1.5244175 0.39971864 1.5338532 8.3480534e-40
-1.5188404 0.40022352 1.536061 1.0209945e-39
-1.5001466 0.40670478 1.5327507 2.852301e-40
-1.498276 0.40823901 1.538824 1.3915777e-39
-1.4838437 0.40263301 1.5318116 1.6663667e-39
-1.4780331 0.41238397 1.5337739 1.1149964e-39
-1.468339 0.42326021 1.5399325 4.0609181e-39
-1.4554093 0.42915213 1.5344073 4.5204515e-39
-1.4672117 0.43176916 1.5303136 4.7956035e-39
-1.4598236 0.4391838 1.5305375 5.3502122e-39
-1.5841402 -0.61514044 1.5436807 9.4079493e-39
-1.5709082 -0.61436856 1.5421695 7.2863625e-39
-1.5918362 -0.60911512 1.5473982 1.4200697e-38
-1.5842936 -0.60911077 1.5476776 1.1986557e-38
-1.5757802 -0.60494465 1.5469921 1.6965089e-38
-1.5672717 -0.6083461 1.5463068 7.1912872e-39
-1.5147994 -0.45325524 1.5409482 1.1801043e-38
-1.5230542 -0.44236031 1.5446392 7.928464e-39
-1.5146401 -0.44755718 1.540246 1.1614494e-38
-1.5541604 -0.43251312 1.5457531 5.8094107e-39
-1.5447404 -0.43569809 1.5440388 7.561122e-39
-1.5353558 -0.43653315 1.5439088 1.1524452e-38
-1.5278147 -0.43415964 1.5457616 1.1248219e-38
-1.5540595 -0.42557549 1.5407864 6.7299265e-39
-1.5466242 -0.42663094 1.5450647 4.8856537e-39
-1.49474 0.039470695 1.5435169 1.1065283e-38
-1.4867758 0.033229642 1.5432645 7.9288242e-39
-1.494463 0.043952946 1.5472617 1.0605023e-38
-1.5003575 0.054624863 1.5493476 5.7157815e-39
-1.5041002 0.065710336 1.5452311 2.304539e-39
-1.4924451 0.063229747 1.5410522 6.9157568e-39
-1.5078651 0.077124402 1.5491176 7.0065077e-39
-1.493378 0.07454551 1.5420179 6.2711021e-39
-1.5115857 0.084407307 1.5450021 2.674025e-39
-1.4980171 0.086084157 1.5468491 4.607978e-39
-1.5246316 0.099235848 1.5426035 6.6416671e-39
-1.5157995 0.095660225 1.5453733 5.1668999e-39
-1.5078844 0.099630401 1.5491151 3.7861235e-39
-1.4980214 0.093623675 1.5468488 6.9168092e-39
-1.5320982 0.10670326 1.542376 3.9715881e-39
-1.5247102 0.10698178 1.5466022 3.6038846e-39
-1.513492 0.10699149 1.5469432 3.4209311e-39
-1.5032079 0.10706842 1.5482562 3.1454246e-39
-1.4994595 0.10476688 1.5442934 3.6042405e-39
-1.5022645 0.11420295 1.5432819 2.7795119e-39
-1.4982877 0.11536963 1.5471222 2.7795119e-39
-1.4973681 0.12468204 1.546155 2.5944004e-39
-1.4951285 0.13543791 1.543808 7.6601308e-39
-1.4945955 0.14507058 1.5432487 6.6434649e-39
-1.4929683 0.15138803 1.5415603 1.0699707e-38
-1.4919624 0.16595624 1.5485811 4.1552633e-39
-1.4911138 0.17444453 1.5476174 3.8754324e-39
-1.4887013 0.17634337 1.5451901 3.693925e-39
-1.4911236 0.18568346 1.5476162 5.9988172e-39
-1.4850181 0.18341617 1.5413237 5.3527261e-39
-1.4911332 0.19692241 1.5476149 8.1211159e-39
-1.4849199 0.19658531 1.5466638 7.6586973e-39
-1.4911397 0.20441502 1.5476141 2.4989776e-39
-1.4868748 0.20620711 1.5432554 3.7882717e-39
-1.5061101 0.21938734 1.547158 2.4100063e-39
-1.4908564 0.21308394 1.5473672 2.9610263e-39
-1.4962438 0.22528963 1.5449091 2.5951165e-39
-1.4981035 0.23687445 1.5468413 2.3188897e-39
-1.4981078 0.24441396 1.5468408 2.503281e-39
-1.4953345 0.25524426 1.5439413 2.6869534e-39
-1.4925612 0.26603708 1.5410416 2.6880352e-39
-1.5145366 0.27505654 1.5438958 1.1192759e-39
-1.4906012 0.27457634 1.5471179 6.4754002e-42
-1.5014853 0.28664446 1.5462923 7.5586039e-42
-1.4915898 0.28534353 1.5440791 7.2054767e-42
-1.5005527 0.29394794 1.5453196 6.8411391e-42
-1.4943693 0.29341829 1.5469779 2.8379237e-40
-1.5021878 0.30437845 1.5429834 1.5748871e-39
-1.4999956 0.30510879 1.5487704 7.2040754e-42
-1.51556 0.317182 1.5488634 5.0432732e-42
-1.5056887 0.31676337 1.5438894 4.6817382e-42
-1.5230546 0.32467753 1.5486351 4.3244071e-42
-1.5113312 0.32693315 1.544347 4.3244071e-42
-1.5075419 0.32775113 1.5484902 4.3244071e-42
-1.5436072 0.339237 1.5460085 3.9600695e-42
-1.5380437 0.3396686 1.5481783 3.6013371e-42
-1.5286433 0.33175731 1.5464637 3.6041397e-42
-1.5169647 0.33487731 1.5461395 4.6803369e-42
-1.5376402 0.34950843 1.5433718 2.8810696e-42
-1.5257498 0.34492496 1.5458137 3.9600695e-42
-1.5734113 0.35746345 1.5440477 3.2384008e-42
-1.5658875 0.35746777 1.5443264 9.6154298e-41
-1.5583637 0.35747209 1.5446051 9.5075298e-41
-1.5461184 0.35725641 1.5440581 9.5435432e-41
-1.5348707 0.3581537 1.5484775 3.6013371e-42
-1.5753626 0.36545664 1.5459766 2.878267e-42
-1.5640627 0.36546314 1.5463953 2.8796683e-42
-1.5527629 0.36546963 1.5468138 2.878267e-42
-1.547139 0.36592767 1.5490235 3.6013371e-42
-1.5395964 0.36593199 1.5493029 3.2412033e-42
-1.5753669 0.37300554 1.5459763 2.5195346e-42
-1.5678337 0.37300986 1.5462554 2.5195346e-42
-1.5555696 0.37278482 1.5457089 2.8796683e-42
-1.5471433 0.37348592 1.5490232 3.5985345e-42
-1.5809481 0.38007766 1.5437678 2.8768657e-42
-1.5734243 0.38008198 1.5440465 2.8768657e-42
-1.5658218 0.38446882 1.5416595 9.4712362e-41
-1.5545845 0.38228405 1.5434102 9.5434031e-41
-1.546473 0.38527855 1.5457119 3.2384008e-42
-1.5351968 0.38560697 1.5474639 9.5795566e-41
-1.5245242 0.38861546 1.5498606 3.9600695e-42
-1.5436589 0.399178 1.5460018 2.7946936e-40
-1.5304339 0.3976841 1.5404011 8.3372214e-40
-1.5240179 0.3960259 1.544118 3.7382579e-40
-1.5158244 0.39731872 1.5470166 3.7526633e-40
-1.5081429 0.39971051 1.5490818 3.74909e-40
-1.5625035 0.40016532 1.5494311 5.5605345e-40
-1.5550059 0.40017182 1.5496589 4.6386062e-40
-1.5151261 0.40122905 1.5402014 6.5329375e-40
-1.5076123 0.40223667 1.5444825 6.5329095e-40
-1.4929051 0.40798962 1.5452793 1.3915791e-39
-1.492523 0.4107976 1.549044 1.3922979e-39
-1.4838417 0.414215 1.5478181 1.4834202e-39
-1.4775583 0.41731423 1.5455954 3.509552e-39
-1.4819982 0.42117932 1.5458726 3.141131e-39
-1.4783049 0.42758718 1.5419825 4.1527592e-39
-1.4663001 0.42485082 1.5460122 4.5208145e-39
-1.4782228 0.43724641 1.5499878 4.7044868e-39
-1.4560823 0.43532908 1.5433884 6.1788925e-39
-1.461585 0.44197255 1.5404884 5.903386e-39
-1.4596094 0.44364846 1.546551 6.3643641e-39
-1.5939498 -0.60379469 1.5533237 2.1486994e-38
-1.5711496 -0.60229051 1.5501657 1.9825681e-38
-1.5635977 -0.60228616 1.5504454 1.3553164e-38
-1.6036363 -0.59461498 1.5589688 2.0470332e-38
-1.5960354 -0.59841794 1.5592505 2.2683366e-38
-1.5825982 -0.59620172 1.5537441 2.2958873e-38
-1.5730907 -0.59546012 1.5520949 2.249826e-38
-1.5674568 -0.59619302 1.554305 2.1390136e-38
-1.5846134 -0.58523595 1.558339 2.2774843e-38
-1.5769687 -0.5893389 1.5559539 2.2682649e-38
-1.5693908 -0.58553666 1.5562344 1.9362905e-38
-1.5846503 -0.57556784 1.5596715 2.2683007e-38
-1.588454 -0.56795543 1.5595304 2.3050707e-38
-1.5845661 -0.55896014 1.5556715 2.3050707e-38
-1.5769861 -0.55895579 1.5559522 2.2683007e-38
-1.5233719 -0.44189882 1.5536927 5.4391848e-39
-1.5166464 -0.44568586 1.5505378 1.0140803e-38
