# .PCD v0.7 - Point Cloud Data file format
VERSION 0.7
FIELDS x y z
SIZE 4 4 4
TYPE F F F
COUNT 1 1 1
WIDTH 1598
HEIGHT 1
VIEWPOINT 0 0 0 0 1 0 0
POINTS 1598
DATA ascii
0.33636999 -0.41490999 2.0376999
0.33798999 -0.41429999 2.0346999
0.37174001 -0.41429999 2.0346999
0.37439999 -0.41490999 2.0376999
0.37650999 -0.41490999 2.0376999
0.37863001 -0.41490999 2.0376999
0.38073999 -0.41490999 2.0376999
0.38341999 -0.41552001 2.0406001
0.38609999 -0.41613001 2.0436001
0.38765001 -0.41552001 2.0406001
0.39034 -0.41613001 2.0436001
0.39302999 -0.41674 2.0467
0.39515999 -0.41674 2.0467
0.39785999 -0.41736001 2.0497
0.40057999 -0.41797 2.0527
0.40211999 -0.41736001 2.0497
0.40424001 -0.41736001 2.0497
0.40637001 -0.41736001 2.0497
0.40849 -0.41736001 2.0497
0.41122001 -0.41797 2.0527
0.41273999 -0.41736001 2.0497
0.41486999 -0.41736001 2.0497
0.41637999 -0.41674 2.0467
0.41850001 -0.41674 2.0467
0.42124 -0.41736001 2.0497
0.42275 -0.41674 2.0467
0.42487001 -0.41674 2.0467
0.42636001 -0.41613001 2.0436001
0.42910999 -0.41674 2.0467
0.42997 -0.41552001 2.0406001
0.43209001 -0.41552001 2.0406001
0.43548 -0.41674 2.0467
0.43825001 -0.41736001 2.0497
0.43972 -0.41674 2.0467
0.44185001 -0.41674 2.0467
0.44462001 -0.41736001 2.0497
0.44674999 -0.41736001 2.0497
0.44953999 -0.41797 2.0527
0.45232999 -0.41859001 2.0557001
0.45447001 -0.41859001 2.0557001
0.45660001 -0.41859001 2.0557001
0.50551999 -0.41674 2.0467
0.50764 -0.41674 2.0467
0.51324999 -0.41613001 2.0436001
0.51537001 -0.41613001 2.0436001
0.51749003 -0.41613001 2.0436001
0.52037001 -0.41674 2.0467
0.52327001 -0.41736001 2.0497
0.52462 -0.41674 2.0467
0.52674001 -0.41674 2.0467
0.52885997 -0.41674 2.0467
0.53097999 -0.41674 2.0467
0.53311002 -0.41674 2.0467
0.53601998 -0.41736001 2.0497
0.53735 -0.41674 2.0467
0.54026997 -0.41736001 2.0497
0.54320002 -0.41797 2.0527
0.54452002 -0.41736001 2.0497
0.54745001 -0.41797 2.0527
0.56576997 -0.41736001 2.0497
0.57214999 -0.41736001 2.0497
0.57343 -0.41674 2.0467
0.57555002 -0.41674 2.0467
0.57766998 -0.41674 2.0467
0.57809001 -0.41552001 2.0406001
0.58020997 -0.41552001 2.0406001
0.58232999 -0.41552001 2.0406001
0.58358997 -0.41490999 2.0376999
0.58569998 -0.41490999 2.0376999
0.58780998 -0.41490999 2.0376999
0.59078997 -0.41552001 2.0406001
0.59290999 -0.41552001 2.0406001
0.59676999 -0.41674 2.0467
0.59890002 -0.41674 2.0467
0.60013998 -0.41613001 2.0436001
0.60224998 -0.41613001 2.0436001
0.60349 -0.41552001 2.0406001
0.60649002 -0.41613001 2.0436001
0.60860997 -0.41613001 2.0436001
0.61163002 -0.41674 2.0467
0.61374998 -0.41674 2.0467
0.61497003 -0.41613001 2.0436001
0.61921 -0.41613001 2.0436001
0.62861001 -0.41674 2.0467
0.63072997 -0.41674 2.0467
0.63472003 -0.41797 2.0527
0.63685 -0.41797 2.0527
0.63897997 -0.41797 2.0527
0.64134002 -0.41674 2.0467
0.64441001 -0.41736001 2.0497
0.64653999 -0.41736001 2.0497
0.64962 -0.41797 2.0527
0.65078998 -0.41736001 2.0497
0.65195 -0.41674 2.0467
0.65407997 -0.41674 2.0467
0.65619999 -0.41674 2.0467
-0.38472 -0.41339999 2.0406001
-0.38203999 -0.41280001 2.0376999
-0.37937 -0.41218999 2.0346999
-0.37726 -0.41218999 2.0346999
-0.37515 -0.41218999 2.0346999
-0.37248999 -0.41159001 2.0316999
-0.37039 -0.41159001 2.0316999
-0.36721 -0.41038999 2.0258
-0.36142999 -0.41099 2.0287001
-0.35828 -0.40979001 2.0228
-0.3567 -0.41038999 2.0258
-0.35460001 -0.41038999 2.0258
-0.35148001 -0.40920001 2.0199001
-0.34887999 -0.4086 2.017
-0.34678 -0.4086 2.017
-0.32749 -0.40801001 2.0139999
-0.32425001 -0.40920001 2.0199001
-0.32262 -0.40979001 2.0228
-0.32099 -0.41038999 2.0258
-0.31981999 -0.41159001 2.0316999
-0.31817999 -0.41218999 2.0346999
-0.31747001 -0.41400999 2.0436001
-0.31580999 -0.41462001 2.0467
-0.31415001 -0.41523001 2.0497
-0.31202999 -0.41523001 2.0497
-0.30989999 -0.41523001 2.0497
-0.30823001 -0.41585001 2.0527
-0.30610001 -0.41585001 2.0527
-0.30441999 -0.41646001 2.0557001
-0.29207 -0.41707999 2.0588
-0.2895 -0.41646001 2.0557001
-0.28780001 -0.41707999 2.0588
-0.28523999 -0.41646001 2.0557001
-0.28227001 -0.41523001 2.0497
-0.28015 -0.41523001 2.0497
-0.27761 -0.41462001 2.0467
-0.27590001 -0.41523001 2.0497
-0.27337 -0.41462001 2.0467
-0.27045 -0.41339999 2.0406001
-0.26794001 -0.41280001 2.0376999
-0.26504999 -0.41159001 2.0316999
-0.26293999 -0.41159001 2.0316999
-0.26045001 -0.41099 2.0287001
-0.25835001 -0.41099 2.0287001
-0.25587001 -0.41038999 2.0258
-0.25376999 -0.41038999 2.0258
-0.25167 -0.41038999 2.0258
-0.24957 -0.41038999 2.0258
-0.24710999 -0.40979001 2.0228
-0.22026999 -0.38146999 1.883
-0.21743 -0.37992999 1.8753999
-0.21549 -0.37992999 1.8753999
-0.21325999 -0.37942001 1.8729
-0.21303999 -0.38251001 1.8882
-0.21051 -0.38146999 1.883
-0.20912001 -0.38251001 1.8882
-0.20688 -0.38198999 1.8856
-0.20465 -0.38146999 1.883
-0.2027 -0.38146999 1.883
-0.20102 -0.38198999 1.8856
-0.19711 -0.38198999 1.8856
-0.19267 -0.38095999 1.8805
-0.18171 -0.38251001 1.8882
-0.17951 -0.38198999 1.8856
-0.1522 -0.43852001 2.1645999
-0.14926 -0.43647999 2.1545
-0.14634 -0.43446001 2.1445999
-0.14368001 -0.43312001 2.138
-0.14534 -0.47475001 2.3434999
-0.14339 -0.47635999 2.3513999
-0.14119001 -0.47716999 2.3554001
-0.13875 -0.47716999 2.3554001
-0.13562 -0.47475001 2.3434999
-0.13341001 -0.47555 2.3474
-0.13098 -0.47555 2.3474
-0.12853999 -0.47555 2.3474
-0.12632 -0.47635999 2.3513999
-0.12367 -0.47555 2.3474
-0.12104 -0.47475001 2.3434999
-0.11861 -0.47475001 2.3434999
-0.11618 -0.47475001 2.3434999
-0.11355 -0.47395 2.3395
-0.11113 -0.47395 2.3395
-0.1087 -0.47395 2.3395
-0.10592 -0.47235999 2.3317001
-0.10333 -0.47156999 2.3278
-0.10091 -0.47156999 2.3278
-0.098336004 -0.47077999 2.3239
-0.095129997 -0.46687999 2.3046
-0.092587002 -0.46610001 2.3008001
-0.063166 -0.41400999 2.0436001
-0.060690001 -0.41159001 2.0316999
-0.058412999 -0.41038999 2.0258
-0.056311999 -0.41038999 2.0258
-0.054211002 -0.41038999 2.0258
-0.050083 -0.41099 2.0287001
-0.043644998 -0.40979001 2.0228
-0.041425999 -0.4086 2.017
-0.039278001 -0.40801001 2.0139999
0.30001 -0.41218999 2.0346999
0.30256 -0.41280001 2.0376999
0.30467001 -0.41280001 2.0376999
0.30678999 -0.41280001 2.0376999
0.31312999 -0.41280001 2.0376999
0.31524 -0.41280001 2.0376999
0.31735 -0.41280001 2.0376999
0.31946 -0.41280001 2.0376999
0.32205001 -0.41339999 2.0406001
0.32416999 -0.41339999 2.0406001
0.32628 -0.41339999 2.0406001
0.32839999 -0.41339999 2.0406001
0.33050999 -0.41339999 2.0406001
0.33263001 -0.41339999 2.0406001
0.33425999 -0.41280001 2.0376999
0.33636999 -0.41280001 2.0376999
0.37228999 -0.41280001 2.0376999
0.37439999 -0.41280001 2.0376999
0.37707001 -0.41339999 2.0406001
0.37918001 -0.41339999 2.0406001
0.3813 -0.41339999 2.0406001
0.38398001 -0.41400999 2.0436001
0.38609999 -0.41400999 2.0436001
0.38822001 -0.41400999 2.0436001
0.39091 -0.41462001 2.0467
0.39361 -0.41523001 2.0497
0.39574 -0.41523001 2.0497
0.40057999 -0.41585001 2.0527
0.40270999 -0.41585001 2.0527
0.41547999 -0.41585001 2.0527
0.41760999 -0.41585001 2.0527
0.42550001 -0.41523001 2.0497
0.42699 -0.41462001 2.0467
0.42975 -0.41523001 2.0497
0.43059999 -0.41400999 2.0436001
0.43272001 -0.41400999 2.0436001
0.43548 -0.41462001 2.0467
0.43825001 -0.41523001 2.0497
0.43972 -0.41462001 2.0467
0.44185001 -0.41462001 2.0467
0.44462001 -0.41523001 2.0497
0.44674999 -0.41523001 2.0497
0.44953999 -0.41585001 2.0527
0.45232999 -0.41646001 2.0557001
0.45447001 -0.41646001 2.0557001
0.45727 -0.41707999 2.0588
0.50265002 -0.41400999 2.0436001
0.50551999 -0.41462001 2.0467
0.50764 -0.41462001 2.0467
0.50976002 -0.41462001 2.0467
0.51187998 -0.41462001 2.0467
0.51401001 -0.41462001 2.0467
0.51612997 -0.41462001 2.0467
0.51824999 -0.41462001 2.0467
0.52113998 -0.41523001 2.0497
0.52403998 -0.41585001 2.0527
0.52539003 -0.41523001 2.0497
0.52752 -0.41523001 2.0497
0.52964002 -0.41523001 2.0497
0.53176999 -0.41523001 2.0497
0.53389001 -0.41523001 2.0497
0.53601998 -0.41523001 2.0497
0.53814 -0.41523001 2.0497
0.54026997 -0.41523001 2.0497
0.54400003 -0.41646001 2.0557001
0.54531997 -0.41585001 2.0527
0.54745001 -0.41585001 2.0527
0.55120999 -0.41707999 2.0588
0.56187999 -0.41707999 2.0588
0.57002002 -0.41523001 2.0497
0.57214999 -0.41523001 2.0497
0.57428002 -0.41523001 2.0497
0.57639998 -0.41523001 2.0497
0.57766998 -0.41462001 2.0467
0.57893997 -0.41400999 2.0436001
0.58105999 -0.41400999 2.0436001
0.58318001 -0.41400999 2.0436001
0.58443999 -0.41339999 2.0406001
0.58741999 -0.41400999 2.0436001
0.58867002 -0.41339999 2.0406001
0.59078997 -0.41339999 2.0406001
0.59377998 -0.41400999 2.0436001
0.59766001 -0.41523001 2.0497
0.59978002 -0.41523001 2.0497
0.60101998 -0.41462001 2.0467
0.60314 -0.41462001 2.0467
0.60437 -0.41400999 2.0436001
0.62649 -0.41462001 2.0467
0.62861001 -0.41462001 2.0467
0.63165998 -0.41523001 2.0497
0.63472003 -0.41585001 2.0527
0.63685 -0.41585001 2.0527
0.64229 -0.41523001 2.0497
0.64537001 -0.41585001 2.0527
0.64749998 -0.41585001 2.0527
0.65057999 -0.41646001 2.0557001
0.65175003 -0.41585001 2.0527
0.65388 -0.41585001 2.0527
0.65600997 -0.41585001 2.0527
0.65717 -0.41523001 2.0497
-0.38528001 -0.41189 2.0436001
-0.38260001 -0.41128999 2.0406001
-0.37937 -0.41007999 2.0346999
-0.37726 -0.41007999 2.0346999
-0.37515 -0.41007999 2.0346999
-0.37248999 -0.40948001 2.0316999
-0.37039 -0.40948001 2.0316999
-0.36774001 -0.40889001 2.0287001
-0.36564001 -0.40889001 2.0287001
-0.36353999 -0.40889001 2.0287001
-0.36195999 -0.40948001 2.0316999
-0.35879999 -0.40829 2.0258
-0.3567 -0.40829 2.0258
-0.35460001 -0.40829 2.0258
-0.35199001 -0.40768999 2.0228
-0.34937999 -0.40709999 2.0199001
-0.34678 -0.40651 2.017
-0.33214 -0.40651 2.017
-0.33004999 -0.40651 2.017
-0.32796001 -0.40651 2.017
-0.32633999 -0.40709999 2.0199001
-0.32425001 -0.40709999 2.0199001
-0.32262 -0.40768999 2.0228
-0.32146001 -0.40889001 2.0287001
-0.31981999 -0.40948001 2.0316999
-0.31865001 -0.41068 2.0376999
-0.31794 -0.41249999 2.0467
-0.31628001 -0.41310999 2.0497
-0.31461999 -0.41372001 2.0527
-0.31202999 -0.41310999 2.0497
-0.30989999 -0.41310999 2.0497
-0.30823001 -0.41372001 2.0527
-0.30610001 -0.41372001 2.0527
-0.2895 -0.41433001 2.0557001
-0.28821999 -0.41556001 2.0618
-0.28523999 -0.41433001 2.0557001
-0.28227001 -0.41310999 2.0497
-0.28015 -0.41310999 2.0497
-0.27801999 -0.41310999 2.0497
-0.27590001 -0.41310999 2.0497
-0.27377 -0.41310999 2.0497
-0.27085 -0.41189 2.0436001
-0.26794001 -0.41068 2.0376999
-0.26543999 -0.41007999 2.0346999
-0.26333001 -0.41007999 2.0346999
-0.26082999 -0.40948001 2.0316999
-0.25872999 -0.40948001 2.0316999
-0.25624999 -0.40889001 2.0287001
-0.25413999 -0.40889001 2.0287001
-0.25204 -0.40889001 2.0287001
-0.24993999 -0.40889001 2.0287001
-0.24747001 -0.40829 2.0258
-0.22026999 -0.37952 1.883
-0.21743 -0.37797999 1.8753999
-0.21549 -0.37797999 1.8753999
-0.21325999 -0.37746999 1.8729
-0.21246 -0.37952 1.883
-0.21021999 -0.37900999 1.8805
-0.20884 -0.38003999 1.8856
-0.20688 -0.38003999 1.8856
-0.19711 -0.38003999 1.8856
-0.19241001 -0.37850001 1.8779
-0.19046 -0.37850001 1.8779
-0.18291999 -0.37900999 1.8805
-0.18145999 -0.38003999 1.8856
-0.17927 -0.37952 1.883
-0.17779 -0.38055 1.8882
-0.14926 -0.43424001 2.1545
-0.14339 -0.47391999 2.3513999
-0.14094999 -0.47391999 2.3513999
-0.13851 -0.47391999 2.3513999
-0.13562 -0.47231999 2.3434999
-0.13341001 -0.47312 2.3474
-0.13098 -0.47312 2.3474
-0.12853999 -0.47312 2.3474
-0.12611 -0.47312 2.3474
-0.12367 -0.47312 2.3474
-0.12104 -0.47231999 2.3434999
-0.11861 -0.47231999 2.3434999
-0.11618 -0.47231999 2.3434999
-0.11355 -0.47152999 2.3395
-0.11113 -0.47152999 2.3395
-0.1087 -0.47152999 2.3395
-0.1061 -0.47073001 2.3355999
-0.1035 -0.46994001 2.3317001
-0.10108 -0.46994001 2.3317001
-0.098499998 -0.46915999 2.3278
-0.095288001 -0.46526 2.3083999
-0.092740998 -0.46449 2.3046
-0.062981002 -0.41068 2.0376999
-0.060513001 -0.40829 2.0258
-0.058327999 -0.40768999 2.0228
-0.056230001 -0.40768999 2.0228
-0.050009999 -0.40829 2.0258
-0.043644998 -0.40768999 2.0228
0.17342 -0.41007999 2.0346999
0.24515 -0.41007999 2.0346999
0.26758 -0.40889001 2.0287001
0.29789999 -0.41007999 2.0346999
0.30045 -0.41068 2.0376999
0.30300999 -0.41128999 2.0406001
0.30511999 -0.41128999 2.0406001
0.30724001 -0.41128999 2.0406001
0.30935001 -0.41128999 2.0406001
0.31147 -0.41128999 2.0406001
0.31312999 -0.41068 2.0376999
0.31569999 -0.41128999 2.0406001
0.31782001 -0.41128999 2.0406001
0.31992999 -0.41128999 2.0406001
0.32205001 -0.41128999 2.0406001
0.32464001 -0.41189 2.0436001
0.32675999 -0.41189 2.0436001
0.32888001 -0.41189 2.0436001
0.331 -0.41189 2.0436001
0.33311999 -0.41189 2.0436001
0.33475 -0.41128999 2.0406001
0.33686 -0.41128999 2.0406001
0.33848 -0.41068 2.0376999
0.34108999 -0.41128999 2.0406001
0.34270999 -0.41068 2.0376999
0.34533 -0.41128999 2.0406001
0.36594999 -0.41068 2.0376999
0.36805999 -0.41068 2.0376999
0.37072 -0.41128999 2.0406001
0.37228999 -0.41068 2.0376999
0.37494999 -0.41128999 2.0406001
0.37707001 -0.41128999 2.0406001
0.37974 -0.41189 2.0436001
0.38185999 -0.41189 2.0436001
0.38455001 -0.41249999 2.0467
0.38666999 -0.41249999 2.0467
0.38879001 -0.41249999 2.0467
0.39091 -0.41249999 2.0467
0.39361 -0.41310999 2.0497
0.41183001 -0.41433001 2.0557001
0.42612001 -0.41372001 2.0527
0.43123999 -0.41249999 2.0467
0.43336001 -0.41249999 2.0467
0.44185001 -0.41249999 2.0467
0.44527999 -0.41372001 2.0527
0.44740999 -0.41372001 2.0527
0.44953999 -0.41372001 2.0527
0.45232999 -0.41433001 2.0557001
0.45513999 -0.41494 2.0588
0.50127 -0.41249999 2.0467
0.50339001 -0.41249999 2.0467
0.50625998 -0.41310999 2.0497
0.50839001 -0.41310999 2.0497
0.51051003 -0.41310999 2.0497
0.51264 -0.41310999 2.0497
0.51476002 -0.41310999 2.0497
0.51688999 -0.41310999 2.0497
0.51901001 -0.41310999 2.0497
0.52191001 -0.41372001 2.0527
0.52481002 -0.41433001 2.0557001
0.52617002 -0.41372001 2.0527
0.52829999 -0.41372001 2.0527
0.52964002 -0.41310999 2.0497
0.53254998 -0.41372001 2.0527
0.53468001 -0.41372001 2.0527
0.53680998 -0.41372001 2.0527
0.53894001 -0.41372001 2.0527
0.54106998 -0.41372001 2.0527
0.54400003 -0.41433001 2.0557001
0.54531997 -0.41372001 2.0527
0.54825997 -0.41433001 2.0557001
0.57725 -0.41372001 2.0527
0.57853001 -0.41310999 2.0497
0.57980001 -0.41249999 2.0467
0.58192003 -0.41249999 2.0467
0.58403999 -0.41249999 2.0467
0.58530003 -0.41189 2.0436001
0.58828998 -0.41249999 2.0467
0.58954 -0.41189 2.0436001
0.59253001 -0.41249999 2.0467
0.59464997 -0.41249999 2.0467
0.59766001 -0.41310999 2.0497
0.60066998 -0.41372001 2.0527
0.62954003 -0.41310999 2.0497
0.63165998 -0.41310999 2.0497
0.63472003 -0.41372001 2.0527
0.63779002 -0.41433001 2.0557001
0.63993001 -0.41433001 2.0557001
0.64205998 -0.41433001 2.0557001
0.64323997 -0.41372001 2.0527
0.64631999 -0.41433001 2.0557001
0.64845002 -0.41433001 2.0557001
0.65154999 -0.41494 2.0588
0.65271997 -0.41433001 2.0557001
0.65485001 -0.41433001 2.0557001
0.65697998 -0.41433001 2.0557001
0.65911001 -0.41433001 2.0557001
-0.38585001 -0.41038001 2.0467
-0.38260001 -0.40917 2.0406001
-0.37937 -0.40797001 2.0346999
-0.37781 -0.40856999 2.0376999
-0.3757 -0.40856999 2.0376999
-0.37303999 -0.40797001 2.0346999
-0.37092999 -0.40797001 2.0346999
-0.36827999 -0.40738001 2.0316999
-0.36616999 -0.40738001 2.0316999
-0.36407 -0.40738001 2.0316999
-0.36195999 -0.40738001 2.0316999
-0.35879999 -0.40619001 2.0258
-0.35721999 -0.40678 2.0287001
-0.35512 -0.40678 2.0287001
-0.35199001 -0.40560001 2.0228
-0.34937999 -0.40501001 2.0199001
-0.34729001 -0.40501001 2.0199001
-0.33521 -0.40560001 2.0228
-0.33263001 -0.40501001 2.0199001
-0.32796001 -0.40441999 2.017
-0.32681999 -0.40560001 2.0228
-0.32472 -0.40560001 2.0228
-0.32308999 -0.40619001 2.0258
-0.32146001 -0.40678 2.0287001
-0.32029 -0.40797001 2.0346999
-0.31865001 -0.40856999 2.0376999
-0.31794 -0.41038001 2.0467
-0.31674999 -0.41159001 2.0527
-0.31461999 -0.41159001 2.0527
-0.31248999 -0.41159001 2.0527
-0.31036001 -0.41159001 2.0527
-0.28821999 -0.41341999 2.0618
-0.28566 -0.41281 2.0588
-0.28268999 -0.41159001 2.0527
-0.28055999 -0.41159001 2.0527
-0.27843001 -0.41159001 2.0527
-0.27630001 -0.41159001 2.0527
-0.27417001 -0.41159001 2.0527
-0.27124 -0.41038001 2.0467
-0.26833001 -0.40917 2.0406001
-0.26583001 -0.40856999 2.0376999
-0.26370999 -0.40856999 2.0376999
-0.26122001 -0.40797001 2.0346999
-0.25911 -0.40797001 2.0346999
-0.25661999 -0.40738001 2.0316999
-0.25413999 -0.40678 2.0287001
-0.25204 -0.40678 2.0287001
-0.24993999 -0.40678 2.0287001
-0.24783 -0.40678 2.0287001
-0.22026999 -0.37757 1.883
-0.21743 -0.37604001 1.8753999
-0.21549 -0.37604001 1.8753999
-0.21297 -0.37503001 1.8704
-0.21217 -0.37706 1.8805
-0.20994 -0.37654999 1.8779
-0.20884 -0.37808001 1.8856
-0.20688 -0.37808001 1.8856
-0.19241001 -0.37654999 1.8779
-0.18291999 -0.37706 1.8805
-0.18145999 -0.37808001 1.8856
-0.17902 -0.37706 1.8805
-0.17755 -0.37808001 1.8856
-0.1488 -0.43066999 2.1479001
-0.14315 -0.47068 2.3474
-0.14094999 -0.47148001 2.3513999
-0.13851 -0.47148001 2.3513999
-0.13562 -0.46989 2.3434999
-0.13341001 -0.47068 2.3474
-0.13076 -0.46989 2.3434999
-0.12853999 -0.47068 2.3474
-0.12611 -0.47068 2.3474
-0.12367 -0.47068 2.3474
-0.12104 -0.46989 2.3434999
-0.11861 -0.46989 2.3434999
-0.11618 -0.46989 2.3434999
-0.11375 -0.46989 2.3434999
-0.11113 -0.4691 2.3395
-0.1087 -0.4691 2.3395
-0.1061 -0.46831 2.3355999
-0.1035 -0.46753001 2.3317001
-0.10108 -0.46753001 2.3317001
-0.098499998 -0.46674001 2.3278
-0.095605999 -0.46441001 2.3160999
-0.062797002 -0.40738001 2.0316999
-0.060424998 -0.40560001 2.0228
-0.058242999 -0.40501001 2.0199001
-0.056230001 -0.40560001 2.0228
-0.054133002 -0.40560001 2.0228
-0.050009999 -0.40619001 2.0258
0.0045864 -0.40441999 2.017
0.20236 -0.40678 2.0287001
0.29622 -0.40856999 2.0376999
0.29833999 -0.40856999 2.0376999
0.30089 -0.40917 2.0406001
0.30300999 -0.40917 2.0406001
0.30557001 -0.40977001 2.0436001
0.30768999 -0.40977001 2.0436001
0.30981001 -0.40977001 2.0436001
0.31193 -0.40977001 2.0436001
0.31358999 -0.40917 2.0406001
0.31617001 -0.40977001 2.0436001
0.31829 -0.40977001 2.0436001
0.3204 -0.40977001 2.0436001
0.32300001 -0.41038001 2.0467
0.32512 -0.41038001 2.0467
0.32723999 -0.41038001 2.0467
0.32936999 -0.41038001 2.0467
0.33149001 -0.41038001 2.0467
0.33361 -0.41038001 2.0467
0.33524001 -0.40977001 2.0436001
0.33735999 -0.40977001 2.0436001
0.33897999 -0.40917 2.0406001
0.3416 -0.40977001 2.0436001
0.34321001 -0.40917 2.0406001
0.34533 -0.40917 2.0406001
0.34744 -0.40917 2.0406001
0.34955999 -0.40917 2.0406001
0.35167 -0.40917 2.0406001
0.35378999 -0.40917 2.0406001
0.35539001 -0.40856999 2.0376999
0.35802001 -0.40917 2.0406001
0.36014 -0.40917 2.0406001
0.36226001 -0.40917 2.0406001
0.36436999 -0.40917 2.0406001
0.36649001 -0.40917 2.0406001
0.36860001 -0.40917 2.0406001
0.37125999 -0.40977001 2.0436001
0.37338001 -0.40977001 2.0436001
0.37549999 -0.40977001 2.0436001
0.37762001 -0.40977001 2.0436001
0.38029999 -0.41038001 2.0467
0.38242 -0.41038001 2.0467
0.38455001 -0.41038001 2.0467
0.38666999 -0.41038001 2.0467
0.38936001 -0.41097999 2.0497
0.39149001 -0.41097999 2.0497
0.43037999 -0.41159001 2.0527
0.43336001 -0.41038001 2.0467
0.43889999 -0.41159001 2.0527
0.44527999 -0.41159001 2.0527
0.44740999 -0.41159001 2.0527
0.45019999 -0.4122 2.0557001
0.45300999 -0.41281 2.0588
0.49915001 -0.41038001 2.0467
0.50127 -0.41038001 2.0467
0.50339001 -0.41038001 2.0467
0.50625998 -0.41097999 2.0497
0.50839001 -0.41097999 2.0497
0.51051003 -0.41097999 2.0497
0.51264 -0.41097999 2.0497
0.51551998 -0.41159001 2.0527
0.51765001 -0.41159001 2.0527
0.51977998 -0.41159001 2.0527
0.52267998 -0.4122 2.0557001
0.52559 -0.41281 2.0588
0.52695 -0.4122 2.0557001
0.52907997 -0.4122 2.0557001
0.53121001 -0.4122 2.0557001
0.53333998 -0.4122 2.0557001
0.53547001 -0.4122 2.0557001
0.53839999 -0.41281 2.0588
0.53974003 -0.4122 2.0557001
0.54187 -0.4122 2.0557001
0.54479998 -0.41281 2.0588
0.54613 -0.4122 2.0557001
0.54907 -0.41281 2.0588
0.55203003 -0.41341999 2.0618
0.55417001 -0.41341999 2.0618
0.57596999 -0.4122 2.0557001
0.57810998 -0.4122 2.0557001
0.58064997 -0.41097999 2.0497
0.58278 -0.41097999 2.0497
0.58490002 -0.41097999 2.0497
0.58616 -0.41038001 2.0467
0.58915001 -0.41097999 2.0497
0.59040999 -0.41038001 2.0467
0.59253001 -0.41038001 2.0467
0.59552997 -0.41097999 2.0497
0.59854001 -0.41159001 2.0527
0.60066998 -0.41159001 2.0527
0.62011999 -0.41038001 2.0467
0.62620997 -0.41159001 2.0527
0.62834001 -0.41159001 2.0527
0.63046998 -0.41159001 2.0527
0.63260001 -0.41159001 2.0527
0.63565999 -0.4122 2.0557001
0.64727998 -0.41281 2.0588
0.64941001 -0.41281 2.0588
0.65154999 -0.41281 2.0588
0.65368003 -0.41281 2.0588
0.65582001 -0.41281 2.0588
0.65697998 -0.4122 2.0557001
0.65911001 -0.4122 2.0557001
-0.38585001 -0.40825 2.0467
-0.38316 -0.40764999 2.0436001
-0.37992999 -0.40645999 2.0376999
-0.37781 -0.40645999 2.0376999
-0.37625 -0.40705001 2.0406001
-0.37358999 -0.40645999 2.0376999
-0.37147 -0.40645999 2.0376999
-0.36882001 -0.40586001 2.0346999
-0.36671001 -0.40586001 2.0346999
-0.3646 -0.40586001 2.0346999
-0.36249 -0.40586001 2.0346999
-0.35933 -0.40468001 2.0287001
-0.35775 -0.40527001 2.0316999
-0.35563999 -0.40527001 2.0316999
-0.35249999 -0.40408999 2.0258
-0.34988999 -0.40349999 2.0228
-0.34779 -0.40349999 2.0228
-0.3457 -0.40349999 2.0228
-0.3441 -0.40408999 2.0258
-0.33730999 -0.40349999 2.0228
-0.33570001 -0.40408999 2.0258
-0.33311 -0.40349999 2.0228
-0.32844001 -0.40290999 2.0199001
-0.32681999 -0.40349999 2.0228
-0.32472 -0.40349999 2.0228
-0.32357001 -0.40468001 2.0287001
-0.32192999 -0.40527001 2.0316999
-0.32029 -0.40586001 2.0346999
-0.31911999 -0.40705001 2.0406001
-0.3184 -0.40886 2.0497
-0.31720999 -0.41007 2.0557001
-0.31507999 -0.41007 2.0557001
-0.28992999 -0.41067001 2.0588
-0.28865001 -0.41189 2.0648999
-0.28566 -0.41067001 2.0588
-0.28310999 -0.41007 2.0557001
-0.28097999 -0.41007 2.0557001
-0.27884001 -0.41007 2.0557001
-0.27671 -0.41007 2.0557001
-0.27458 -0.41007 2.0557001
-0.27164 -0.40886 2.0497
-0.26873001 -0.40764999 2.0436001
-0.26622 -0.40705001 2.0406001
-0.26409999 -0.40705001 2.0406001
-0.26159999 -0.40645999 2.0376999
-0.25949001 -0.40645999 2.0376999
-0.257 -0.40586001 2.0346999
-0.25450999 -0.40527001 2.0316999
-0.25240999 -0.40527001 2.0316999
-0.25029999 -0.40527001 2.0316999
-0.24783 -0.40468001 2.0287001
-0.22026999 -0.37562001 1.883
-0.21743 -0.37408999 1.8753999
-0.21549 -0.37408999 1.8753999
-0.21297 -0.37309 1.8704
-0.21160001 -0.37408999 1.8753999
-0.20994 -0.37459999 1.8779
-0.20855001 -0.37562001 1.883
-0.19241001 -0.37459999 1.8779
-0.19046 -0.37459999 1.8779
-0.18291999 -0.37511 1.8805
-0.18145999 -0.37613001 1.8856
-0.17927 -0.37562001 1.883
-0.14857 -0.42778 2.1445999
-0.14291 -0.46746001 2.3434999
-0.14071 -0.46825001 2.3474
-0.13828 -0.46825001 2.3474
-0.13562 -0.46746001 2.3434999
-0.13341001 -0.46825001 2.3474
-0.13076 -0.46746001 2.3434999
-0.12853999 -0.46825001 2.3474
-0.12611 -0.46825001 2.3474
-0.12367 -0.46825001 2.3474
-0.12104 -0.46746001 2.3434999
-0.11841 -0.46667001 2.3395
-0.11618 -0.46746001 2.3434999
-0.11375 -0.46746001 2.3434999
-0.11113 -0.46667001 2.3395
-0.1087 -0.46667001 2.3395
-0.1061 -0.46588999 2.3355999
-0.10368 -0.46588999 2.3355999
-0.10125 -0.46588999 2.3355999
-0.098665997 -0.46511 2.3317001
-0.095605999 -0.46201 2.3160999
-0.062614001 -0.40408999 2.0258
-0.060424998 -0.40349999 2.0228
-0.058242999 -0.40290999 2.0199001
-0.056148 -0.40290999 2.0199001
-0.054053999 -0.40290999 2.0199001
-0.051959001 -0.40290999 2.0199001
-0.050009999 -0.40408999 2.0258
-0.039335001 -0.40233001 2.017
0.17156 -0.40645999 2.0376999
0.17366999 -0.40645999 2.0376999
0.25396001 -0.40645999 2.0376999
0.26030001 -0.40645999 2.0376999
0.26797 -0.40527001 2.0316999
0.27298 -0.40645999 2.0376999
0.29622 -0.40645999 2.0376999
0.29833999 -0.40645999 2.0376999
0.30089 -0.40705001 2.0406001
0.30344999 -0.40764999 2.0436001
0.30557001 -0.40764999 2.0436001
0.31239 -0.40825 2.0467
0.31404999 -0.40764999 2.0436001
0.31663001 -0.40825 2.0467
0.31874999 -0.40825 2.0467
0.32088 -0.40825 2.0467
0.32348001 -0.40886 2.0497
0.3256 -0.40886 2.0497
0.32773 -0.40886 2.0497
0.32984999 -0.40886 2.0497
0.33197999 -0.40886 2.0497
0.33410001 -0.40886 2.0497
0.33572999 -0.40825 2.0467
0.33785 -0.40825 2.0467
0.33998001 -0.40825 2.0467
0.34209999 -0.40825 2.0467
0.34371999 -0.40764999 2.0436001
0.34634 -0.40825 2.0467
0.34847 -0.40825 2.0467
0.35007 -0.40764999 2.0436001
0.35218999 -0.40764999 2.0436001
0.35431001 -0.40764999 2.0436001
0.35591 -0.40705001 2.0406001
0.35855001 -0.40764999 2.0436001
0.36067 -0.40764999 2.0436001
0.36278999 -0.40764999 2.0436001
0.36491001 -0.40764999 2.0436001
0.36702999 -0.40764999 2.0436001
0.36969 -0.40825 2.0467
0.37180999 -0.40825 2.0467
0.37393001 -0.40825 2.0467
0.37606001 -0.40825 2.0467
0.37818 -0.40825 2.0467
0.38029999 -0.40825 2.0467
0.38242 -0.40825 2.0467
0.38510999 -0.40886 2.0497
0.38723999 -0.40886 2.0497
0.38936001 -0.40886 2.0497
0.43336001 -0.40825 2.0467
0.4425 -0.40886 2.0497
0.44527999 -0.40946001 2.0527
0.44740999 -0.40946001 2.0527
0.45019999 -0.41007 2.0557001
0.45300999 -0.41067001 2.0588
0.45795 -0.41128001 2.0618
0.49915001 -0.40825 2.0467
0.50200999 -0.40886 2.0497
0.50414002 -0.40886 2.0497
0.50700998 -0.40946001 2.0527
0.50914001 -0.40946001 2.0527
0.51126999 -0.40946001 2.0527
0.51340002 -0.40946001 2.0527
0.51629001 -0.41007 2.0557001
0.51841998 -0.41007 2.0557001
0.52055001 -0.41007 2.0557001
0.52345997 -0.41067001 2.0588
0.52559 -0.41067001 2.0588
0.52772999 -0.41067001 2.0588
0.52986002 -0.41067001 2.0588
0.53200001 -0.41067001 2.0588
0.53412998 -0.41067001 2.0588
0.53627002 -0.41067001 2.0588
0.53920001 -0.41128001 2.0618
0.54053003 -0.41067001 2.0588
0.54267001 -0.41067001 2.0588
0.54479998 -0.41067001 2.0588
0.54694003 -0.41067001 2.0588
0.54907 -0.41067001 2.0588
0.58490002 -0.40886 2.0497
0.58702999 -0.40886 2.0497
0.59002 -0.40946001 2.0527
0.59127998 -0.40886 2.0497
0.5934 -0.40886 2.0497
0.59552997 -0.40886 2.0497
0.62408 -0.40946001 2.0527
0.62620997 -0.40946001 2.0527
0.62834001 -0.40946001 2.0527
0.63139999 -0.41007 2.0557001
0.63260001 -0.40946001 2.0527
0.63660002 -0.41067001 2.0588
0.64086998 -0.41067001 2.0588
0.64419001 -0.41007 2.0557001
0.65252 -0.41128001 2.0618
0.65582001 -0.41067001 2.0588
0.65794998 -0.41067001 2.0588
0.66009003 -0.41067001 2.0588
-0.38642001 -0.40673 2.0497
-0.38316 -0.40553001 2.0436001
-0.37992999 -0.40434 2.0376999
-0.37836999 -0.40494001 2.0406001
-0.3768 -0.40553001 2.0436001
-0.37413999 -0.40494001 2.0406001
-0.37202001 -0.40494001 2.0406001
-0.36936 -0.40434 2.0376999
-0.36725 -0.40434 2.0376999
-0.36513001 -0.40434 2.0376999
-0.36302 -0.40434 2.0376999
-0.35984999 -0.40316001 2.0316999
-0.35826999 -0.40375 2.0346999
-0.35616001 -0.40375 2.0346999
-0.35302001 -0.40257001 2.0287001
-0.35091001 -0.40257001 2.0287001
-0.34830001 -0.40199 2.0258
-0.34619999 -0.40199 2.0258
-0.3441 -0.40199 2.0258
-0.34200001 -0.40199 2.0258
-0.33989999 -0.40199 2.0258
-0.3378 -0.40199 2.0258
-0.33618999 -0.40257001 2.0287001
-0.33360001 -0.40199 2.0258
-0.33101001 -0.4014 2.0228
-0.32844001 -0.40081999 2.0199001
-0.32729 -0.40199 2.0258
-0.32519001 -0.40199 2.0258
-0.32357001 -0.40257001 2.0287001
-0.32192999 -0.40316001 2.0316999
-0.32029 -0.40375 2.0346999
-0.31959 -0.40553001 2.0436001
-0.31887001 -0.40733001 2.0527
-0.31720999 -0.40792999 2.0557001
-0.31555 -0.40854001 2.0588
-0.31341001 -0.40854001 2.0588
-0.29721999 -0.40975001 2.0648999
-0.28865001 -0.40975001 2.0648999
-0.28608999 -0.40913999 2.0618
-0.28310999 -0.40792999 2.0557001
-0.28097999 -0.40792999 2.0557001
-0.27671 -0.40792999 2.0557001
-0.27498999 -0.40854001 2.0588
-0.27204999 -0.40733001 2.0527
-0.26912001 -0.40612999 2.0467
-0.26661 -0.40553001 2.0436001
-0.26449001 -0.40553001 2.0436001
-0.26198 -0.40494001 2.0406001
-0.25949001 -0.40434 2.0376999
-0.257 -0.40375 2.0346999
-0.25488999 -0.40375 2.0346999
-0.25277999 -0.40375 2.0346999
-0.25029999 -0.40316001 2.0316999
-0.24783 -0.40257001 2.0287001
-0.22057 -0.37417001 1.8856
-0.21743 -0.37215 1.8753999
-0.21549 -0.37215 1.8753999
-0.21297 -0.37114999 1.8704
-0.21103001 -0.37114999 1.8704
-0.20937 -0.37165001 1.8729
-0.20827 -0.37316 1.8805
-0.19046 -0.37265 1.8779
-0.18171 -0.37468001 1.8882
-0.17951 -0.37417001 1.8856
-0.14834 -0.4249 2.1413
-0.14291 -0.46503001 2.3434999
-0.14071 -0.46582001 2.3474
-0.13828 -0.46582001 2.3474
-0.13562 -0.46503001 2.3434999
-0.13319001 -0.46503001 2.3434999
-0.13076 -0.46503001 2.3434999
-0.12833001 -0.46503001 2.3434999
-0.12611 -0.46582001 2.3474
-0.12367 -0.46582001 2.3474
-0.12104 -0.46503001 2.3434999
-0.11841 -0.46425 2.3395
-0.11598 -0.46425 2.3395
-0.11355 -0.46425 2.3395
-0.11113 -0.46425 2.3395
-0.1087 -0.46425 2.3395
-0.1061 -0.46347001 2.3355999
-0.10368 -0.46347001 2.3355999
-0.10125 -0.46347001 2.3355999
-0.098665997 -0.46269 2.3317001
-0.095766 -0.46037 2.3199999
-0.062523 -0.4014 2.0228
-0.060337 -0.40081999 2.0199001
-0.058157999 -0.40024 2.017
-0.056148 -0.40081999 2.0199001
-0.054053999 -0.40081999 2.0199001
-0.051959001 -0.40081999 2.0199001
-0.039335001 -0.40024 2.017
0.00040521999 -0.40199 2.0258
0.017185001 -0.4014 2.0228
0.086785004 -0.40316001 2.0316999
0.19057 -0.40434 2.0376999
0.19903 -0.40434 2.0376999
0.23847 -0.40316001 2.0316999
0.24058001 -0.40316001 2.0316999
0.24551 -0.40434 2.0376999
0.24762 -0.40434 2.0376999
0.25185001 -0.40434 2.0376999
0.25396001 -0.40434 2.0376999
0.25608 -0.40434 2.0376999
0.25819001 -0.40434 2.0376999
0.26030001 -0.40434 2.0376999
0.26241001 -0.40434 2.0376999
0.26453 -0.40434 2.0376999
0.26625001 -0.40375 2.0346999
0.26835999 -0.40375 2.0346999
0.27046999 -0.40375 2.0346999
0.27298 -0.40434 2.0376999
0.28946 -0.40375 2.0346999
0.29157001 -0.40375 2.0346999
0.29622 -0.40434 2.0376999
0.29877001 -0.40494001 2.0406001
0.30133 -0.40553001 2.0436001
0.30344999 -0.40553001 2.0436001
0.30601999 -0.40612999 2.0467
0.31450999 -0.40612999 2.0467
0.31663001 -0.40612999 2.0467
0.31922001 -0.40673 2.0497
0.32135001 -0.40673 2.0497
0.32348001 -0.40673 2.0497
0.32607999 -0.40733001 2.0527
0.32821 -0.40733001 2.0527
0.33034 -0.40733001 2.0527
0.33247 -0.40733001 2.0527
0.3346 -0.40733001 2.0527
0.33623001 -0.40673 2.0497
0.33835 -0.40673 2.0497
0.34048 -0.40673 2.0497
0.34259999 -0.40673 2.0497
0.34472999 -0.40673 2.0497
0.34685001 -0.40673 2.0497
0.34898001 -0.40673 2.0497
0.35111001 -0.40673 2.0497
0.35271001 -0.40612999 2.0467
0.35483 -0.40612999 2.0467
0.35696 -0.40612999 2.0467
0.35907999 -0.40612999 2.0467
0.3612 -0.40612999 2.0467
0.36331999 -0.40612999 2.0467
0.36598 -0.40673 2.0497
0.36811 -0.40673 2.0497
0.37022999 -0.40673 2.0497
0.37235999 -0.40673 2.0497
0.37448999 -0.40673 2.0497
0.38510999 -0.40673 2.0497
0.38780999 -0.40733001 2.0527
0.41244 -0.40854001 2.0588
0.44036999 -0.40673 2.0497
0.4425 -0.40673 2.0497
0.44527999 -0.40733001 2.0527
0.44740999 -0.40733001 2.0527
0.45019999 -0.40792999 2.0557001
0.45300999 -0.40854001 2.0588
0.49989 -0.40673 2.0497
0.50274998 -0.40733001 2.0527
0.50488001 -0.40733001 2.0527
0.50700998 -0.40733001 2.0527
0.50989002 -0.40792999 2.0557001
0.51201999 -0.40792999 2.0557001
0.51415002 -0.40792999 2.0557001
0.51705003 -0.40854001 2.0588
0.51919001 -0.40854001 2.0588
0.52131999 -0.40854001 2.0588
0.52423 -0.40913999 2.0618
0.52636999 -0.40913999 2.0618
0.53412998 -0.40854001 2.0588
0.53627002 -0.40854001 2.0588
0.53920001 -0.40913999 2.0618
0.54133999 -0.40913999 2.0618
0.54347003 -0.40913999 2.0618
0.58490002 -0.40673 2.0497
0.58702999 -0.40673 2.0497
0.59002 -0.40733001 2.0527
0.59214997 -0.40733001 2.0527
0.59428 -0.40733001 2.0527
0.60156 -0.40792999 2.0557001
0.62102997 -0.40673 2.0497
0.62408 -0.40733001 2.0527
0.62620997 -0.40733001 2.0527
0.62834001 -0.40733001 2.0527
0.63139999 -0.40792999 2.0557001
0.63353002 -0.40792999 2.0557001
0.63660002 -0.40854001 2.0588
0.63779002 -0.40792999 2.0557001
0.64419001 -0.40792999 2.0557001
0.65582001 -0.40854001 2.0588
0.65794998 -0.40854001 2.0588
0.66009003 -0.40854001 2.0588
-0.38699001 -0.4052 2.0527
-0.38372999 -0.40401 2.0467
-0.37992999 -0.40222999 2.0376999
-0.37891999 -0.40340999 2.0436001
-0.37735999 -0.40401 2.0467
-0.37469 -0.40340999 2.0436001
-0.37202001 -0.40281999 2.0406001
-0.36989999 -0.40281999 2.0406001
-0.36779001 -0.40281999 2.0406001
-0.36567 -0.40281999 2.0406001
-0.36409 -0.40340999 2.0436001
-0.36091 -0.40222999 2.0376999
-0.35879999 -0.40222999 2.0376999
-0.35668001 -0.40222999 2.0376999
-0.35352999 -0.40105999 2.0316999
-0.35143 -0.40105999 2.0316999
-0.34880999 -0.40046999 2.0287001
-0.34671 -0.40046999 2.0287001
-0.34459999 -0.40046999 2.0287001
-0.3425 -0.40046999 2.0287001
-0.34039 -0.40046999 2.0287001
-0.33829001 -0.40046999 2.0287001
-0.33618999 -0.40046999 2.0287001
-0.33360001 -0.39989001 2.0258
-0.33149999 -0.39989001 2.0258
-0.32892001 -0.39930001 2.0228
-0.32729 -0.39989001 2.0258
-0.32519001 -0.39989001 2.0258
-0.32357001 -0.40046999 2.0287001
-0.32192999 -0.40105999 2.0316999
-0.32029 -0.40164 2.0346999
-0.31959 -0.40340999 2.0436001
-0.31887001 -0.4052 2.0527
-0.31720999 -0.40580001 2.0557001
-0.31555 -0.4064 2.0588
-0.30364001 -0.40761 2.0648999
-0.28865001 -0.40761 2.0648999
-0.28608999 -0.40700999 2.0618
-0.28353 -0.4064 2.0588
-0.28139001 -0.4064 2.0588
-0.27711999 -0.4064 2.0588
-0.27498999 -0.4064 2.0588
-0.27245 -0.40580001 2.0557001
-0.26912001 -0.40401 2.0467
-0.26699999 -0.40401 2.0467
-0.26488 -0.40401 2.0467
-0.26198 -0.40281999 2.0406001
-0.25986999 -0.40281999 2.0406001
-0.25737 -0.40222999 2.0376999
-0.25525999 -0.40222999 2.0376999
-0.25277999 -0.40164 2.0346999
-0.25029999 -0.40105999 2.0316999
-0.24819 -0.40105999 2.0316999
-0.22057 -0.37221 1.8856
-0.21743 -0.37020999 1.8753999
-0.21549 -0.37020999 1.8753999
-0.21297 -0.36921 1.8704
-0.21046001 -0.36822 1.8653001
-0.20937 -0.36971 1.8729
-0.20827 -0.37121001 1.8805
-0.18196 -0.37323001 1.8907
-0.18000001 -0.37323001 1.8907
-0.14267001 -0.46182001 2.3395
-0.14071 -0.46338001 2.3474
-0.13828 -0.46338001 2.3474
-0.13562 -0.46259999 2.3434999
-0.13319001 -0.46259999 2.3434999
-0.13054 -0.46182001 2.3395
-0.12833001 -0.46259999 2.3434999
-0.12611 -0.46338001 2.3474
-0.12347 -0.46259999 2.3434999
-0.12083 -0.46182001 2.3395
-0.11841 -0.46182001 2.3395
-0.11598 -0.46182001 2.3395
-0.11355 -0.46182001 2.3395
-0.11113 -0.46182001 2.3395
-0.1087 -0.46182001 2.3395
-0.1061 -0.46105 2.3355999
-0.10368 -0.46105 2.3355999
-0.10125 -0.46105 2.3355999
-0.098665997 -0.46026999 2.3317001
-0.095926002 -0.45873001 2.3239
-0.060249999 -0.39815 2.017
-0.058074001 -0.39757001 2.0139999
-0.056067001 -0.39815 2.017
-0.054053999 -0.39872 2.0199001
-0.051883999 -0.39815 2.017
-0.0016979 -0.40046999 2.0287001
0.0067071002 -0.39989001 2.0258
0.0088077998 -0.39989001 2.0258
0.16287 -0.40164 2.0346999
0.16709 -0.40164 2.0346999
0.22161999 -0.40105999 2.0316999
0.23215 -0.40105999 2.0316999
0.24093001 -0.40164 2.0346999
0.24339999 -0.40222999 2.0376999
0.24551 -0.40222999 2.0376999
0.24799 -0.40281999 2.0406001
0.24974 -0.40222999 2.0376999
0.25222 -0.40281999 2.0406001
0.25433999 -0.40281999 2.0406001
0.25645 -0.40281999 2.0406001
0.25856999 -0.40281999 2.0406001
0.26067999 -0.40281999 2.0406001
0.26280001 -0.40281999 2.0406001
0.26453 -0.40222999 2.0376999
0.26664001 -0.40222999 2.0376999
0.26835999 -0.40164 2.0346999
0.27087 -0.40222999 2.0376999
0.27338001 -0.40281999 2.0406001
0.27509001 -0.40222999 2.0376999
0.27721 -0.40222999 2.0376999
0.292 -0.40222999 2.0376999
0.29411 -0.40222999 2.0376999
0.29666001 -0.40281999 2.0406001
0.29877001 -0.40281999 2.0406001
0.30133 -0.40340999 2.0436001
0.3039 -0.40401 2.0467
0.30601999 -0.40401 2.0467
0.31450999 -0.40401 2.0467
0.32181999 -0.4052 2.0527
0.33296001 -0.40580001 2.0557001
0.34524 -0.4052 2.0527
0.34737 -0.4052 2.0527
0.3495 -0.4052 2.0527
0.35161999 -0.4052 2.0527
0.35323 -0.40461001 2.0497
0.35536 -0.40461001 2.0497
0.35747999 -0.40461001 2.0497
0.35960999 -0.40461001 2.0497
0.36173001 -0.40461001 2.0497
0.3644 -0.4052 2.0527
0.36651999 -0.4052 2.0527
0.36864999 -0.4052 2.0527
0.37077999 -0.4052 2.0527
0.38086 -0.40461001 2.0497
0.38567999 -0.4052 2.0527
0.38780999 -0.4052 2.0527
0.43399999 -0.40461001 2.0497
0.44315001 -0.4052 2.0527
0.44593999 -0.40580001 2.0557001
0.44806999 -0.40580001 2.0557001
0.45019999 -0.40580001 2.0557001
0.45300999 -0.4064 2.0588
0.48993999 -0.40340999 2.0436001
0.49630001 -0.40340999 2.0436001
0.49915001 -0.40401 2.0467
0.50274998 -0.4052 2.0527
0.50488001 -0.4052 2.0527
0.50775999 -0.40580001 2.0557001
0.50989002 -0.40580001 2.0557001
0.51201999 -0.40580001 2.0557001
0.51492 -0.4064 2.0588
0.51705003 -0.4064 2.0588
0.51995999 -0.40700999 2.0618
0.52209002 -0.40700999 2.0618
0.54000002 -0.40761 2.0648999
0.54775 -0.40700999 2.0618
0.54988998 -0.40700999 2.0618
0.5909 -0.40580001 2.0557001
0.59302998 -0.40580001 2.0557001
0.59640998 -0.4052 2.0527
0.61891001 -0.40461001 2.0497
0.62102997 -0.40461001 2.0497
0.62408 -0.4052 2.0527
0.62713999 -0.40580001 2.0557001
0.62927002 -0.40580001 2.0557001
0.63139999 -0.40580001 2.0557001
0.63353002 -0.40580001 2.0557001
0.63660002 -0.4064 2.0588
0.63874 -0.4064 2.0588
0.64086998 -0.4064 2.0588
0.64301002 -0.4064 2.0588
0.64513999 -0.4064 2.0588
0.64823997 -0.40700999 2.0618
0.64941001 -0.4064 2.0588
0.65679002 -0.40700999 2.0618
0.65893 -0.40700999 2.0618
0.66106999 -0.40700999 2.0618
-0.38699001 -0.40307 2.0527
-0.38372999 -0.40189001 2.0467
-0.37992999 -0.40011999 2.0376999
-0.37891999 -0.40130001 2.0436001
-0.37735999 -0.40189001 2.0467
-0.37469 -0.40130001 2.0436001
-0.37257001 -0.40130001 2.0436001
-0.37044999 -0.40130001 2.0436001
-0.36833 -0.40130001 2.0436001
-0.36621001 -0.40130001 2.0436001
-0.36463001 -0.40189001 2.0467
-0.36144 -0.40070999 2.0406001
-0.35984999 -0.40130001 2.0436001
-0.35721001 -0.40070999 2.0406001
-0.35405001 -0.39952999 2.0346999
-0.35194001 -0.39952999 2.0346999
-0.34931999 -0.39895001 2.0316999
-0.34720999 -0.39895001 2.0316999
-0.34511 -0.39895001 2.0316999
-0.34299999 -0.39895001 2.0316999
-0.34088999 -0.39895001 2.0316999
-0.33879 -0.39895001 2.0316999
-0.33668 -0.39895001 2.0316999
-0.33408001 -0.39837 2.0287001
-0.33197999 -0.39837 2.0287001
-0.3294 -0.39779001 2.0258
-0.32729 -0.39779001 2.0258
-0.32567 -0.39837 2.0287001
-0.32404 -0.39895001 2.0316999
-0.3224 -0.39952999 2.0346999
-0.32076001 -0.40011999 2.0376999
-0.32006001 -0.40189001 2.0467
-0.31887001 -0.40307 2.0527
-0.31720999 -0.40367001 2.0557001
-0.28865001 -0.40547001 2.0648999
-0.28650999 -0.40547001 2.0648999
-0.28353 -0.40426999 2.0588
-0.27498999 -0.40426999 2.0588
-0.27245 -0.40367001 2.0557001
-0.26952001 -0.40248001 2.0497
-0.26699999 -0.40189001 2.0467
-0.26488 -0.40189001 2.0467
-0.26236999 -0.40130001 2.0436001
-0.26025 -0.40130001 2.0436001
-0.25775 -0.40070999 2.0406001
-0.25525999 -0.40011999 2.0376999
-0.25314999 -0.40011999 2.0376999
-0.25066999 -0.39952999 2.0346999
-0.24819 -0.39895001 2.0316999
-0.24537 -0.39779001 2.0258
-0.22026999 -0.36976001 1.883
-0.21743 -0.36826 1.8753999
-0.21549 -0.36826 1.8753999
-0.21297 -0.36726999 1.8704
-0.21046001 -0.36627999 1.8653001
-0.20937 -0.36776 1.8729
-0.20855001 -0.36976001 1.883
-0.18196 -0.37127 1.8907
-0.18000001 -0.37127 1.8907
-0.14435001 -0.42838001 2.1816001
-0.14163999 -0.42704001 2.1747999
-0.13981999 -0.42838001 2.1816001
-0.14267001 -0.4594 2.3395
-0.14071 -0.46094999 2.3474
-0.13828 -0.46094999 2.3474
-0.13562 -0.46017 2.3434999
-0.13319001 -0.46017 2.3434999
-0.13054 -0.4594 2.3395
-0.12833001 -0.46017 2.3434999
-0.1259 -0.46017 2.3434999
-0.12347 -0.46017 2.3434999
-0.12083 -0.4594 2.3395
-0.11841 -0.4594 2.3395
-0.11598 -0.4594 2.3395
-0.11355 -0.4594 2.3395
-0.11113 -0.4594 2.3395
-0.1087 -0.4594 2.3395
-0.1061 -0.45862001 2.3355999
-0.10368 -0.45862001 2.3355999
-0.10125 -0.45862001 2.3355999
-0.098830998 -0.45862001 2.3355999
-0.096086003 -0.45708999 2.3278
-0.060162999 -0.39548001 2.0139999
-0.058074001 -0.39548001 2.0139999
-0.056067001 -0.39605001 2.017
-0.054053999 -0.39662999 2.0199001
-0.051883999 -0.39605001 2.017
0.0046064998 -0.39779001 2.0258
0.13333 -0.39952999 2.0346999
0.13544001 -0.39952999 2.0346999
0.13755 -0.39952999 2.0346999
0.13966 -0.39952999 2.0346999
0.14177001 -0.39952999 2.0346999
0.14409 -0.40011999 2.0376999
0.1462 -0.40011999 2.0376999
0.14831001 -0.40011999 2.0376999
0.15042999 -0.40011999 2.0376999
0.15254 -0.40011999 2.0376999
0.15465 -0.40011999 2.0376999
0.15677001 -0.40011999 2.0376999
0.15888 -0.40011999 2.0376999
0.16099 -0.40011999 2.0376999
0.16311 -0.40011999 2.0376999
0.16546001 -0.40070999 2.0406001
0.17393 -0.40070999 2.0406001
0.17764001 -0.39952999 2.0346999
0.23459999 -0.39952999 2.0346999
0.23706 -0.40011999 2.0376999
0.23882 -0.39952999 2.0346999
0.24093001 -0.39952999 2.0346999
0.24376 -0.40070999 2.0406001
0.24586999 -0.40070999 2.0406001
0.24834999 -0.40130001 2.0436001
0.25009999 -0.40070999 2.0406001
0.25259 -0.40130001 2.0436001
0.25470999 -0.40130001 2.0436001
0.25645 -0.40070999 2.0406001
0.25895 -0.40130001 2.0436001
0.26107001 -0.40130001 2.0436001
0.26319 -0.40130001 2.0436001
0.26492 -0.40070999 2.0406001
0.26703 -0.40070999 2.0406001
0.26875001 -0.40011999 2.0376999
0.27125999 -0.40070999 2.0406001
0.27377999 -0.40130001 2.0436001
0.2755 -0.40070999 2.0406001
0.27761 -0.40070999 2.0406001
0.27972999 -0.40070999 2.0406001
0.28184 -0.40070999 2.0406001
0.28396001 -0.40070999 2.0406001
0.28608 -0.40070999 2.0406001
0.28819001 -0.40070999 2.0406001
0.29031 -0.40070999 2.0406001
0.29243001 -0.40070999 2.0406001
0.29453999 -0.40070999 2.0406001
0.29708999 -0.40130001 2.0436001
0.29921001 -0.40130001 2.0436001
0.30177999 -0.40189001 2.0467
0.3039 -0.40189001 2.0467
0.30647001 -0.40248001 2.0497
0.35800999 -0.40307 2.0527
0.36014 -0.40307 2.0527
0.36227 -0.40307 2.0527
0.3644 -0.40307 2.0527
0.36706999 -0.40367001 2.0557001
0.38624999 -0.40367001 2.0557001
0.43954 -0.40367001 2.0557001
0.44168001 -0.40367001 2.0557001
0.44380999 -0.40367001 2.0557001
0.44593999 -0.40367001 2.0557001
0.44874001 -0.40426999 2.0588
0.45087001 -0.40426999 2.0588
0.48993999 -0.40130001 2.0436001
0.49630001 -0.40130001 2.0436001
0.49915001 -0.40189001 2.0467
0.50274998 -0.40307 2.0527
0.50488001 -0.40307 2.0527
0.50775999 -0.40367001 2.0557001
0.50989002 -0.40367001 2.0557001
0.51278001 -0.40426999 2.0588
0.51492 -0.40426999 2.0588
0.51782 -0.40487 2.0618
0.51995999 -0.40487 2.0618
0.53706002 -0.40487 2.0618
0.55580997 -0.40606999 2.0680001
0.59604001 -0.40426999 2.0588
0.60031003 -0.40426999 2.0588
0.60245001 -0.40426999 2.0588
0.61647999 -0.40367001 2.0557001
0.61982 -0.40307 2.0527
0.62194997 -0.40307 2.0527
0.625 -0.40367001 2.0557001
0.62713999 -0.40367001 2.0557001
0.63020003 -0.40426999 2.0588
0.63233 -0.40426999 2.0588
0.63446999 -0.40426999 2.0588
0.63755 -0.40487 2.0618
0.63968998 -0.40487 2.0618
0.64182001 -0.40487 2.0618
0.64301002 -0.40426999 2.0588
0.64609998 -0.40487 2.0618
0.64920002 -0.40547001 2.0648999
0.65038002 -0.40487 2.0618
0.65347999 -0.40547001 2.0648999
0.65562999 -0.40547001 2.0648999
0.65776998 -0.40547001 2.0648999
0.65991002 -0.40547001 2.0648999
0.66205001 -0.40547001 2.0648999
-0.38699001 -0.40095001 2.0527
-0.38372999 -0.39976001 2.0467
-0.37992999 -0.39800999 2.0376999
-0.37948 -0.39976001 2.0467
-0.37792 -0.40035 2.0497
-0.37524 -0.39976001 2.0467
-0.37311 -0.39976001 2.0467
-0.37044999 -0.39918 2.0436001
-0.36886999 -0.39976001 2.0467
-0.36675 -0.39976001 2.0467
-0.36515999 -0.40035 2.0497
-0.36250001 -0.39976001 2.0467
-0.36037999 -0.39976001 2.0467
-0.35826001 -0.39976001 2.0467
-0.35508999 -0.39859 2.0406001
-0.35246 -0.39800999 2.0376999
-0.34983 -0.39741999 2.0346999
-0.34823 -0.39800999 2.0376999
-0.34560999 -0.39741999 2.0346999
-0.34349999 -0.39741999 2.0346999
-0.34139001 -0.39741999 2.0346999
-0.33928001 -0.39741999 2.0346999
-0.33717 -0.39741999 2.0346999
-0.33456999 -0.39684001 2.0316999
-0.33197999 -0.39625999 2.0287001
-0.3294 -0.39568999 2.0258
-0.32567 -0.39625999 2.0287001
-0.32404 -0.39684001 2.0316999
-0.3224 -0.39741999 2.0346999
-0.32122999 -0.39859 2.0406001
-0.32053 -0.40035 2.0497
-0.31935 -0.40154001 2.0557001
-0.31720999 -0.40154001 2.0557001
-0.31602001 -0.40272999 2.0618
-0.28865001 -0.40333 2.0648999
-0.28650999 -0.40333 2.0648999
-0.28353 -0.40213001 2.0588
-0.27498999 -0.40213001 2.0588
-0.27245 -0.40154001 2.0557001
-0.26952001 -0.40035 2.0497
-0.26699999 -0.39976001 2.0467
-0.26488 -0.39976001 2.0467
-0.26276001 -0.39976001 2.0467
-0.26025 -0.39918 2.0436001
-0.25775 -0.39859 2.0406001
-0.25564 -0.39859 2.0406001
-0.25314999 -0.39800999 2.0376999
-0.25066999 -0.39741999 2.0346999
-0.24856 -0.39741999 2.0346999
-0.24573 -0.39625999 2.0287001
-0.22026999 -0.36781001 1.883
-0.21743 -0.36632001 1.8753999
-0.21549 -0.36632001 1.8753999
-0.21297 -0.36533001 1.8704
-0.21046001 -0.36434999 1.8653001
-0.20937 -0.36581999 1.8729
-0.20855001 -0.36781001 1.883
-0.18221 -0.36980999 1.8933001
-0.18000001 -0.36930999 1.8907
-0.15535 -0.43154001 2.2093
-0.14684001 -0.42679 2.1849999
-0.14480001 -0.42746001 2.1884999
-0.14230999 -0.42679 2.1849999
-0.14004 -0.42679 2.1849999
-0.13778 -0.42679 2.1849999
-0.14267001 -0.45697001 2.3395
-0.14071 -0.45851001 2.3474
-0.13828 -0.45851001 2.3474
-0.13562 -0.45774001 2.3434999
-0.13319001 -0.45774001 2.3434999
-0.13054 -0.45697001 2.3395
-0.12833001 -0.45774001 2.3434999
-0.12611 -0.45851001 2.3474
-0.12347 -0.45774001 2.3434999
-0.12104 -0.45774001 2.3434999
-0.11841 -0.45697001 2.3395
-0.11598 -0.45697001 2.3395
-0.11355 -0.45697001 2.3395
-0.11113 -0.45697001 2.3395
-0.1087 -0.45697001 2.3395
-0.10628 -0.45697001 2.3395
-0.10385 -0.45697001 2.3395
-0.10142 -0.45697001 2.3395
-0.098830998 -0.4562 2.3355999
-0.096086003 -0.45467001 2.3278
-0.060075998 -0.39282 2.0111001
-0.05799 -0.39282 2.0111001
-0.055985998 -0.39339 2.0139999
-0.053975001 -0.39396 2.017
-0.051883999 -0.39396 2.017
0.13122 -0.39741999 2.0346999
0.13333 -0.39741999 2.0346999
0.13564 -0.39800999 2.0376999
0.13775 -0.39800999 2.0376999
0.13986 -0.39800999 2.0376999
0.14218 -0.39859 2.0406001
0.1443 -0.39859 2.0406001
0.14642 -0.39859 2.0406001
0.14853001 -0.39859 2.0406001
0.15064999 -0.39859 2.0406001
0.15276 -0.39859 2.0406001
0.15511 -0.39918 2.0436001
0.15723 -0.39918 2.0436001
0.15910999 -0.39859 2.0406001
0.16147 -0.39918 2.0436001
0.16335 -0.39859 2.0406001
0.16546001 -0.39859 2.0406001
0.16757999 -0.39859 2.0406001
0.22860999 -0.39800999 2.0376999
0.23072 -0.39800999 2.0376999
0.23283 -0.39800999 2.0376999
0.23495001 -0.39800999 2.0376999
0.23740999 -0.39859 2.0406001
0.23917 -0.39800999 2.0376999
0.24129 -0.39800999 2.0376999
0.24411 -0.39918 2.0436001
0.24623001 -0.39918 2.0436001
0.24872001 -0.39976001 2.0467
0.25047001 -0.39918 2.0436001
0.25296 -0.39976001 2.0467
0.25509 -0.39976001 2.0467
0.25720999 -0.39976001 2.0467
0.25933 -0.39976001 2.0467
0.26144999 -0.39976001 2.0467
0.26357001 -0.39976001 2.0467
0.26570001 -0.39976001 2.0467
0.26743001 -0.39918 2.0436001
0.26954001 -0.39918 2.0436001
0.27166 -0.39918 2.0436001
0.27419001 -0.39976001 2.0467
0.27590001 -0.39918 2.0436001
0.27801999 -0.39918 2.0436001
0.28014001 -0.39918 2.0436001
0.28226 -0.39918 2.0436001
0.28437999 -0.39918 2.0436001
0.28650001 -0.39918 2.0436001
0.28862 -0.39918 2.0436001
0.29074001 -0.39918 2.0436001
0.29286 -0.39918 2.0436001
0.29497001 -0.39918 2.0436001
0.29753 -0.39976001 2.0467
0.29965001 -0.39976001 2.0467
0.30221999 -0.40035 2.0497
0.30904999 -0.40095001 2.0527
0.36014 -0.40095001 2.0527
0.44446999 -0.40213001 2.0588
0.44659999 -0.40213001 2.0588
0.44874001 -0.40213001 2.0588
0.45153999 -0.40272999 2.0618
0.48993999 -0.39918 2.0436001
0.49489999 -0.39976001 2.0467
0.49702999 -0.39976001 2.0467
0.49915001 -0.39976001 2.0467
0.50274998 -0.40095001 2.0527
0.50488001 -0.40095001 2.0527
0.50775999 -0.40154001 2.0557001
0.51064998 -0.40213001 2.0588
0.51278001 -0.40213001 2.0588
0.51492 -0.40213001 2.0588
0.51782 -0.40272999 2.0618
0.51995999 -0.40272999 2.0618
0.54079998 -0.40393001 2.0680001
0.54724002 -0.40393001 2.0680001
0.61738998 -0.40213001 2.0588
0.61861002 -0.40154001 2.0557001
0.62074 -0.40154001 2.0557001
0.62287003 -0.40154001 2.0557001
0.62593001 -0.40213001 2.0588
0.62805998 -0.40213001 2.0588
0.63112998 -0.40272999 2.0618
0.63327003 -0.40272999 2.0618
